-5.2005 1.4028 14.668 60 45 38
-3.3606 -3.3947 14.436 61 41 35
-5.8607 3.4159 14.771 38 33 39
-5.7901 0.4049 14.839 68 63 60
-5.405 3.4796 14.646 50 39 43
-8.3608 9.2845 19.884 47 31 26
-6.0109 2.7933 14.817 17 8 9
-6.8775 1.2416 16.522 35 38 17
-5.7886 1.3282 14.823 117 119 109
-7.9178 4.4554 19.694 59 46 38
13.248 -8.6767 16.972 245 240 185
-6.8012 0.75914 16.743 34 32 20
12.785 15.883 24.166 100 94 96
-4.3373 3.178 14.383 58 35 37
-6.2103 3.7616 14.85 83 79 78
-6.6835 -2.6031 15.095 37 26 20
-6.5713 6.6724 14.915 43 44 49
-5.8423 4.9518 14.712 79 76 79
-4.2907 3.7428 14.345 37 29 26
-6.2719 -0.47608 14.95 80 62 57
-4.6231 3.6409 14.458 58 42 45
1.7892 5.5947 12.88 106 102 103
0.85214 -2.1307 19.075 35 26 26
-4.7669 6.5231 15.028 52 68 23
-3.5759 -5.295 14.481 72 54 44
-8.1854 5.0925 19.791 40 29 30
-6.0865 2.8592 14.854 44 40 41
-4.5687 3.2861 14.462 65 66 63
-7.297 2.3763 15.111 57 46 44
-3.1869 1.8945 14.166 69 61 50
-6.2464 -1.4332 14.979 64 54 53
-3.5952 -6.4894 14.498 58 40 33
-4.8192 3.562 14.501 30 19 22
-8.4199 6.9481 19.795 55 35 43
-3.2724 2.1095 14.172 48 28 23
-6.4979 1.958 14.96 87 71 63
-4.5927 3.4452 14.458 115 90 80
-5.8513 4.7015 14.71 98 89 90
-6.3334 6.7583 14.893 35 37 23
-3.9093 1.587 14.349 55 37 34
-7.1511 9.3371 17.898 125 125 117
-2.3568 4.0499 13.898 112 101 99
-6.175 2.0315 14.889 133 124 122
-5.7988 3.7042 14.748 51 42 45
-7.1427 -2.9722 18.871 73 71 61
-7.4892 1.6684 17.972 64 74 49
-6.8081 3.4828 16.695 60 75 31
-3.1323 1.7874 14.723 45 24 19
-7.2237 1.3505 17.378 48 55 36
-5.1032 3.4821 14.572 98 97 92
-3.7681 2.1165 14.299 66 51 44
-5.3035 2.1188 14.664 46 31 36
-8.6528 7.7839 19.51 100 73 50
-4.0863 1.3961 14.398 43 26 16
-6.9973 3.7558 17.886 42 41 23
-6.9843 -0.026281 17.933 124 128 131
-5.1413 3.8012 14.57 54 49 56
-4.8046 4.2046 14.472 73 64 59
-7.8072 8.2879 15.286 84 70 69
-7.6718 3.5993 15.165 65 30 24
-7.4899 -3.8771 16.763 42 27 27
-4.7287 3.365 14.487 131 114 104
-7.0217 0.3225 17.754 40 29 27
-6.6925 3.0465 14.984 43 30 31
-5.8246 7.849 17.49 162 145 122
-6.9617 1.909 15.067 55 40 43
-2.7352 -1.1589 16.713 41 42 26
-6.7138 5.983 14.929 76 66 66
-5.3594 7.8978 18.244 172 154 130
-8.5859 5.8621 18.366 126 123 104
-5.8658 7.8437 17.302 138 117 97
-7.8019 -0.70799 15.294 32 23 18
-7.3906 -0.30826 19.435 77 61 61
-3.8031 4.2643 14.229 54 38 38
-8.0518 5.4253 19.698 93 81 80
-5.0803 6.258 14.479 71 66 70
-4.5442 3.4337 14.44 70 57 61
-7.211 2.7892 17.643 72 83 41
3.4972 7.0813 12.537 82 77 80
15.609 -1.6757 16.671 254 255 210
2.1465 1.0116 14.045 176 173 165
-4.7665 6.9459 15.334 28 28 17
-7.0118 -2.5043 17.095 44 35 26
-5.473 3.6852 14.666 50 40 40
-7.3751 1.585 15.13 52 34 34
-6.09 2.3201 14.862 63 59 58
-5.1141 4.4581 14.556 127 117 114
-6.3493 0.96777 14.955 42 32 23
-6.4932 2.619 14.947 57 37 38
-6.6093 2.7774 14.968 76 62 61
-7.8479 2.841 17.077 33 32 14
-5.8911 2.0743 14.821 103 93 87
-6.0931 0.91888 14.898 72 60 64
-3.1922 4.2711 14.098 130 120 119
-4.3568 3.1375 14.39 63 47 50
-5.3631 0.51066 14.726 78 69 60
-4.4774 5.421 14.345 58 53 47
-3.8227 4.6314 14.218 31 17 17
-4.1623 2.5052 14.376 85 86 72
-6.5113 -0.38539 15.009 47 31 34
12.22 -9.0094 11.526 175 159 109
-5.6999 2.3467 14.751 70 50 54
-4.2799 3.254 14.374 50 41 46
-4.1439 2.6903 14.364 128 127 127
-7.3172 3.9998 15.89 79 32 17
-3.8366 -0.41664 14.4 62 55 47
-2.3117 0.99685 14.704 150 127 96
-7.2609 1.9132 15.104 56 33 39
-7.8538 -2.4921 15.875 80 68 61
-3.8576 2.6178 14.292 57 44 40
-7.7324 0.96515 18.672 125 126 120
-5.495 2.1766 14.721 82 77 70
-2.0488 8.1452 14.615 55 57 78
-7.1299 1.2326 15.243 42 35 19
2.4144 3.6004 13.388 39 32 36
0.80369 -1.3567 14.058 33 25 22
-4.2829 1.76 14.432 70 51 45
-7.5947 3.7174 15.153 63 35 23
13.498 -7.7008 18.897 128 104 54
-2.0587 8.1645 17.297 151 137 121
-3.4499 1.7925 14.381 50 23 19
-6.841 0.65698 17 28 28 18
-0.074845 8.5041 17.173 131 144 173
-7.2661 4.2006 16.864 62 39 25
-7.1275 2.5622 16.068 46 56 7
-3.4834 4.0719 14.16 107 85 88
-4.1702 1.9485 14.394 95 92 75
-1.3656 -9.8177 14.334 58 40 33
16.018 -5.8717 16.749 255 251 191
-7.8499 2.6481 19.462 61 51 41
-7.0551 2.1728 15.071 53 35 28
-3.9782 -2.8491 17.344 29 20 18
-5.8278 3.1159 14.78 102 103 87
-6.2415 2.8692 14.885 57 50 42
12.092 -8.1777 11.294 69 46 40
-8.9059 7.3483 17.794 132 129 113
-2.8868 -10.568 15.441 114 107 87
1.0929 7.991 19.148 37 28 34
-5.9015 5.2737 14.732 93 82 80
-6.0607 3.649 14.831 85 86 78
-4.4522 2.9342 14.419 145 126 115
-8.1124 5.7039 19.711 67 47 46
-6.4248 3.788 14.892 46 34 38
-7.4144 4.1658 17.628 58 68 9
-5.6843 1.5118 14.78 78 69 66
10.567 7.8815 17.657 111 108 90
-6.3673 0.10343 14.972 56 44 44
-1.9136 7.6992 13.849 40 33 40
2.8089 8.5632 15.719 93 73 62
-8.3196 5.2054 19.125 162 159 144
-5.0055 3.8189 14.543 68 57 63
-4.7446 -3.2048 17.976 43 37 34
-4.6475 3.541 14.451 60 49 53
-0.27347 3.2135 13.456 53 53 51
-4.9936 0.61088 14.639 82 74 66
-6.6596 -0.060518 16.398 34 31 22
-4.2748 2.2377 14.413 38 26 21
-8.957 6.3163 16.698 83 29 33
-5.2868 3.7002 14.622 72 67 71
-5.7242 3.467 14.746 60 50 53
-4.0016 8.0037 17.897 185 171 160
-7.7655 1.8541 19.223 113 112 102
-2.1574 7.3013 13.854 64 62 65
-2.1592 1.4562 13.957 47 33 29
-1.2206 8.2958 14.48 53 45 72
-7.0004 2.5968 16.366 38 41 22
-4.4448 3.3036 14.423 72 63 62
-5.2716 3.7259 14.623 58 51 44
-3.3955 1.2153 14.497 54 27 16
-7.4805 2.7189 15.139 56 38 38
-6.0904 1.4526 14.871 85 64 53
-5.8423 3.6028 14.763 52 42 40
-3.7086 3.3148 14.242 99 91 83
-6.9599 3.8274 15.021 61 47 51
-6.79 1.2684 16.948 51 54 23
-4.2914 3.0584 14.391 57 55 54
-5.8135 2.4585 14.792 81 60 65
-5.1258 1.8652 14.638 43 25 18
-3.9351 0.73351 14.397 85 78 67
-4.8093 1.8904 14.557 128 125 118
-6.9976 1.4515 15.077 75 61 52
-6.3915 3.8435 14.884 35 29 31
-3.2894 1.9539 15.04 62 23 13
-4.6002 4.3946 14.432 83 72 64
-4.6585 7.0763 14.817 26 21 18
-4.5961 3.2213 14.462 66 52 52
-4.8156 1.4183 14.584 73 62 52
-3.9224 2.2903 14.319 72 59 53
-0.63846 9.9876 15.856 28 20 23
-5.0941 0.70123 14.661 62 51 45
-5.7239 1.8483 14.784 104 84 86
-4.9362 1.8342 14.586 70 46 45
-5.1037 3.7219 14.57 104 107 113
-7.3145 1.8773 19.558 44 31 43
-6.6194 5.5711 14.897 75 60 63
-3.6818 8.0426 18.986 189 167 143
-5.5826 4.3785 14.674 81 75 75
-5.3634 1.4576 14.7 51 40 46
9.9457 5.3518 12.168 134 137 128
-2.5968 9.6905 15.715 27 22 18
0.6393 2.197 13.297 105 106 101
-4.6995 1.8266 14.521 65 54 52
-5.8168 7.8812 16.245 111 58 70
-5.1392 1.5051 14.647 80 70 67
-1.8278 -1.537 16.526 27 26 20
-1.588 8.1796 16.466 60 56 74
-5.6353 1.7203 14.754 39 21 17
-4.5906 5.2933 14.388 85 89 75
-9.1168 9.2037 16.594 63 24 32
-1.597 -3.0332 16.24 32 22 21
-6.2899 3.6473 14.854 45 29 31
-4.1221 6.5247 14.331 39 30 31
-6.0041 2.2615 14.835 104 82 85
10.057 4.9298 12.541 131 140 121
-8.1955 3.6357 15.968 33 30 15
-7.9064 5.7319 15.264 69 56 50
-4.4845 2.3095 14.451 58 49 36
-3.709 2.2797 14.268 85 77 66
-6.1273 7.812 15.797 123 107 92
10.852 4.0407 16.252 175 179 154
10.261 -9.5778 14.184 191 174 128
0.070995 4.4046 13.537 31 25 25
-0.75725 8.2451 14.225 119 100 79
-7.0779 2.175 17.571 45 26 18
-4.5126 4.0694 14.428 55 49 49
-5.3974 1.8348 14.703 70 50 49
-2.8902 4.0633 14.025 83 74 65
-5.4234 7.8867 18.59 183 166 140
-3.3228 7.0879 14.107 67 57 65
8.0923 9.2177 12.888 58 52 53
-7.2771 1.5514 19.553 46 31 44
-5.8918 3.2177 14.787 70 67 65
-5.5757 1.7462 14.736 27 20 20
-3.6212 2.0178 14.261 105 93 78
-2.6159 8.1044 15.096 50 47 76
-4.9128 3.4294 14.532 59 51 52
-4.7967 3.7195 14.505 86 70 62
-4.0768 5.2927 14.249 75 59 62
-7.6997 1.1718 18.999 123 123 113
-6.7657 -3.3053 19.14 34 26 30
-6.0139 3.5247 14.814 79 62 62
-7.4217 0.15921 19.626 54 39 42
-4.1311 3.1766 14.349 74 68 69
14.842 -3.8013 11.709 239 221 175
-5.8315 2.6158 14.775 69 59 62
14.97 -3.8447 12.322 243 229 184
-5.5032 5.593 14.594 70 65 65
-2.9106 3.3543 14.059 140 135 131
-8.3466 0.61461 15.592 66 43 39
-2.8602 1.8175 14.084 72 48 44
-5.5534 1.4064 14.755 74 67 49
-4.043 3.6623 14.323 65 54 60
-4.9164 7.9181 20.126 134 107 80
-1.3252 -8.4282 14.172 79 64 62
-4.9895 1.1249 14.623 48 36 32
-5.8626 -2.8202 14.926 57 36 33
-6.8382 -4.4022 19.533 49 37 40
-4.0943 -0.77816 14.464 126 120 108
-2.5217 5.4923 13.892 97 89 85
-1.9686 -8.7904 14.338 77 65 58
-8.4779 1.9913 15.925 42 32 20
-8.954 7.4666 17.624 122 118 107
-6.0752 -2.7493 14.978 90 75 68
-4.4065 2.1407 14.449 57 50 44
4.6147 -10.022 15.218 112 49 40
-7.3258 2.0069 19.565 43 33 42
-6.814 1.2291 16.661 32 33 17
-4.0652 3.4962 14.31 104 76 72
-5.771 4.0433 14.745 70 57 49
-6.151 3.0028 14.861 75 65 63
-8.2045 -0.33601 15.627 61 46 40
-6.5558 0.30833 15.003 54 33 32
-6.2777 3.2016 14.881 41 20 19
-5.7623 3.4162 14.752 28 26 30
-6.2402 5.2272 14.819 69 53 53
-7.5842 2.0345 15.16 42 29 27
-2.6233 1.8885 14.235 57 29 26
-7.121 2.4428 16.668 54 60 34
-9.0894 8.9319 17.985 104 96 85
-5.9824 2.0849 14.829 37 30 36
-9.092 9.2254 17.575 61 26 33
-6.564 3.6085 14.933 73 58 56
-5.3852 3.4517 14.634 117 110 94
-7.8547 3.2381 17.93 33 30 23
-0.27749 8.4877 17.322 132 147 181
-4.2672 1.1911 14.444 106 97 87
-7.7217 -2.6612 16.365 72 69 60
-8.3223 5.9399 19.704 68 43 39
-4.5602 2.218 14.471 62 58 51
-4.4915 5.0512 14.381 59 44 41
-2.1908 8.129 14.151 48 38 48
-6.829 -3.5169 15.133 31 21 21
15.056 -0.19328 14.57 210 203 167
-6.8813 2.8914 15.028 91 78 72
-6.9009 9.3618 19.041 115 103 90
-5.7499 1.6755 14.785 53 36 42
-6.0292 2.9732 14.834 75 68 63
10.008 6.0168 12.807 92 94 93
1.7379 8.4756 16.048 128 117 105
-1.6696 0.35478 13.887 46 28 27
-3.6967 8.0293 16.955 185 164 137
-5.6925 3.8972 14.715 92 91 89
-7.0995 3.9512 15.05 70 52 50
-3.3297 -4.427 16.695 34 27 18
-5.7588 2.5114 14.775 52 33 33
-5.5493 2.2741 14.732 64 56 53
-5.5499 3.5965 14.675 74 67 59
-5.9961 2.0797 14.834 56 52 53
-3.6671 2.6512 14.252 83 81 68
-5.0002 7.9226 17.632 174 157 129
-6.8554 3.4962 17.807 75 38 32
-7.6219 1.1826 19.417 82 81 61
10.864 3.127 14.703 188 194 190
-5.7655 3.7581 14.737 74 64 61
-3.1807 0.75316 14.247 69 27 15
-1.1175 8.2325 16.857 148 135 118
-3.3555 5.5851 14.079 93 76 82
-4.5214 1.9261 14.487 111 100 98
-5.6932 1.8938 14.768 56 37 41
-6.3669 3.6075 14.893 97 95 82
-7.1662 -0.8898 15.142 47 31 34
-3.5961 2.1584 14.25 81 69 66
-6.043 3.8915 14.809 123 123 125
-3.513 1.5458 14.25 52 40 42
-8.4967 7.9051 15.409 47 37 28
5.0516 6.6933 12.896 67 60 69
-3.4972 3.3183 14.185 121 114 111
-7.2081 6.6876 15.062 100 97 93
-4.3661 2.8873 14.406 73 41 44
-5.4316 3.512 14.667 53 41 43
-7.639 1.0354 19.214 116 112 109
-6.53 2.4477 14.954 63 58 62
-8.6904 4.8449 16.244 65 33 28
-5.8338 2.8435 14.776 61 61 56
-8.5329 5.4015 18.243 145 142 126
-4.5033 2.4717 14.457 56 45 51
-4.1716 3.4108 14.365 91 78 69
-3.2788 1.0447 14.222 54 35 37
-4.0478 1.5011 14.387 73 66 57
10.652 7.6667 16.918 175 178 150
-4.104 2.935 14.345 83 83 83
-7.9073 5.962 19.633 77 57 68
-7.6074 0.92461 19.302 89 85 74
16.012 -5.34 16.802 199 134 115
-5.5603 2.0847 14.738 90 63 54
-6.7454 2.0831 16.725 47 63 16
-8.5355 2.2818 15.842 46 35 30
-4.3272 4.8798 14.343 94 83 81
-4.5669 2.4184 14.468 67 53 53
-3.068 3.2339 14.081 75 62 69
-3.6504 3.6283 14.221 83 75 69
-5.6541 4.1872 14.701 64 49 54
-6.7686 -2.0524 19.5 40 30 54
-7.6281 2.9616 15.163 47 33 33
-7.3474 1.5232 17.043 46 45 27
-8.0937 3.5032 15.702 42 37 17
-5.9893 2.7324 14.823 57 48 47
-5.3496 3.5856 14.646 69 51 51
-6.1461 7.8142 16.569 126 113 94
13.111 -8.6306 16.333 248 246 188
-2.7688 9.4297 14.714 33 24 23
-4.9851 1.5185 14.608 23 12 17
-5.4536 4.0416 14.66 64 59 63
-3.6195 1.3699 14.29 50 36 25
-2.6324 2.7675 14.01 72 52 41
-6.5511 -0.7914 15.007 64 47 44
-3.6472 8.0447 18.481 171 148 132
-4.4883 1.954 14.462 29 18 16
-0.81121 -10.41 14.842 80 29 28
-4.0198 0.9449 14.401 80 60 57
-8.7855 5.584 17.144 85 31 33
19.826 -5.4321 19.777 117 115 116
-4.5477 2.4672 14.463 85 71 56
-5.1038 6.057 14.476 82 73 90
-5.469 2.0625 14.713 100 87 71
-1.4162 2.7442 13.723 27 17 8
-5.2414 0.21001 14.697 54 40 39
-4.2661 3.2712 14.378 71 59 61
-4.011 3.2126 14.302 40 25 34
-8.757 6.5442 18.019 107 110 93
-5.0446 1.1515 14.638 45 29 30
-2.7768 8.0805 14.236 80 73 81
-5.3949 3.4534 14.64 63 44 46
-4.5625 5.0234 14.4 78 77 72
-3.3811 4.1607 14.141 120 115 119
-4.8329 3.9949 14.486 84 79 76
2.6031 8.5444 15.966 103 80 73
-6.5596 3.877 14.925 121 118 111
-3.8718 1.1338 14.359 67 56 52
-1.7226 2.0854 13.826 87 83 72
-5.7441 -0.58524 14.828 60 49 47
-9.1925 7.1493 16.113 80 67 57
-4.8085 6.8798 14.511 48 37 45
-4.2796 2.4313 14.413 101 95 79
8.1276 -9.7038 12.939 103 62 40
-7.8084 5.3504 19.633 82 65 71
-5.2609 4.4388 14.584 71 56 57
-4.8057 1.7915 14.55 74 60 60
-5.6904 3.7239 14.721 53 49 52
-3.4949 1.9686 14.229 73 57 48
-6.0699 1.7487 14.861 48 37 37
-3.2456 4.7497 14.098 107 92 84
-8.3802 4.9055 18.592 145 143 131
-3.6039 1.8856 14.267 81 68 59
-4.2755 -1.7275 18.293 56 66 16
-7.9476 5.1263 15.273 56 46 37
-5.8929 2.5218 14.805 60 32 39
-9.0013 6.1982 16.359 80 29 33
-4.2061 -2.3326 17.705 33 25 26
-5.9291 3.2788 14.793 50 35 39
-3.1485 -10.602 16.078 127 114 96
-5.2568 3.529 14.622 97 88 79
-8.5091 2.0503 15.829 52 35 24
-4.8616 3.9479 14.506 34 31 26
10.745 7.592 17.365 156 158 140
-4.6601 2.2694 14.49 48 35 27
-0.46499 6.2692 15.184 77 104 134
-4.5545 -10.67 15.165 47 37 38
-2.3013 -10.521 15.038 118 113 83
-7.2475 3.1892 16.81 37 40 10
-1.6138 4.7262 13.711 62 51 45
0.21252 7.3865 15.554 82 39 53
-3.2631 3.0387 14.143 119 125 125
-4.3839 3.2806 14.402 49 37 40
-5.7961 0.67742 14.835 63 49 49
-3.0246 0.3523 14.598 42 21 18
4.3888 -3.2866 12.681 128 117 98
-1.4926 3.8488 13.698 69 53 54
-1.8769 8.2857 18.033 136 82 95
4.2425 -10.062 15.6 110 43 34
-4.0231 6.8751 15.306 32 26 22
0.46278 8.2014 19.155 93 50 33
-6.0215 4.482 14.776 72 70 71
-2.1073 4.8833 13.819 109 103 103
-7.791 4.0559 15.177 77 31 16
-4.1866 3.2548 14.349 87 73 70
-3.5263 -2.4454 14.439 61 43 41
-7.1423 -2.9138 18.906 80 75 69
-7.398 -2.7664 17.756 84 81 74
-3.5575 3.5296 14.191 74 53 48
-5.3233 3.5446 14.649 104 88 73
-5.8909 6.4322 14.702 86 84 97
-3.5076 1.2274 14.265 53 41 43
-0.70783 7.0817 13.513 80 76 79
-7.0496 2.0421 15.077 63 51 53
-3.8368 2.0323 14.314 35 19 11
-5.3006 3.84 14.62 75 66 61
-6.6168 4.9797 14.917 76 57 51
-7.2493 1.5836 15.135 58 29 22
-3.6316 1.9971 14.257 90 76 65
-4.6923 5.2597 14.43 84 43 36
-4.7728 3.5484 14.489 37 28 29
15.661 -8.094 20.241 124 124 123
-8.8441 6.5642 17.579 126 115 109
-7.8492 2.36 19.225 103 100 94
-3.5827 4.4543 14.176 124 116 106
6.3275 -9.888 15.389 170 163 111
-5.4835 2.1115 14.707 61 36 40
-4.1816 3.1738 14.354 31 20 24
-5.7906 1.6663 14.793 107 93 93
-8.9614 9.0791 18.804 104 89 78
-6.9585 2.3844 15.05 58 43 48
-7.6906 -2.4525 16.629 69 60 53
-6.0697 2.8146 14.841 84 73 71
-4.3043 7.6062 20.247 44 30 31
-3.7757 3.2424 14.251 57 49 46
-4.4591 2.7212 14.433 52 38 33
-3.6805 2.7606 14.243 55 43 43
-8.7246 9.2152 15.647 41 26 25
-6.1706 1.7828 14.892 64 50 52
-7.8884 1.2756 15.66 28 25 18
0.19162 8.3382 15.191 35 25 26
-1.0378 -10.456 15.9 97 34 29
-5.8095 2.3245 14.789 49 36 36
-5.3412 1.7173 14.683 53 42 46
-2.8945 8.0656 16.704 57 49 73
-4.553 2.4975 14.47 79 63 55
12.769 -8.2502 14.699 231 218 171
-3.0698 -10.596 16.129 119 113 92
-3.1509 -1.3258 17.324 38 35 25
-4.6801 6.7488 15.648 48 50 26
-4.4949 3.4886 14.429 83 74 76
-0.83758 8.2562 17.061 162 144 130
-3.8096 8.025 18.048 172 159 151
-7.8279 -1.3571 16.544 38 25 16
-4.5028 3.2544 14.44 163 152 132
-2.0443 0.21117 13.976 48 30 30
-6.3654 -10.83 15.967 47 25 30
-5.0666 0.75212 14.648 91 77 76
-3.0713 5.2332 14.032 121 112 107
16.015 15.913 25.296 193 204 224
-6.0324 3.4335 14.821 73 65 63
-6.6613 3.0274 14.973 36 27 28
10.146 4.3214 12.727 146 152 134
-5.5531 1.4124 14.748 70 46 37
-7.7878 -1.8709 16.358 52 24 27
-6.0685 1.9787 14.857 51 33 30
-5.0579 3.8406 14.556 63 57 57
-3.1616 1.9601 15.127 56 29 21
-3.9255 1.6584 14.341 45 35 26
-8.2264 0.40021 15.989 42 30 22
-5.87 2.9007 14.775 47 29 33
-6.0787 3.0873 14.843 28 19 14
-8.0577 -1.1089 15.731 49 25 25
-3.0107 5.5907 14.004 123 107 108
-4.114 0.30609 14.443 63 42 41
-8.4677 5.3367 18.519 132 131 117
-6.2 2.1937 14.887 77 67 68
-5.3009 4.0121 14.582 19 7 5
-5.0906 1.6995 14.622 43 23 25
-3.9857 1.5136 14.369 55 44 39
-5.424 -2.8248 16.809 67 44 28
-6.1782 2.7537 14.869 91 80 76
-5.8742 3.6338 14.777 120 119 117
-8.5619 5.4612 18.154 129 128 117
-5.4144 0.78102 14.731 62 53 48
-7.5812 9.3203 19.019 85 56 62
-3.0152 -2.6268 14.477 35 25 24
-8.1123 0.47666 16.558 39 28 22
-4.5606 2.5396 14.456 42 19 13
-3.31 1.8546 14.89 57 24 17
-3.3909 2.4004 14.199 60 49 47
-4.6896 3.2868 14.486 135 127 123
-6.3609 2.3394 14.918 74 62 64
5.4859 8.5454 18.261 52 30 37
-5.6823 3.2717 14.727 116 112 103
-0.98132 -3.631 17.68 29 19 20
-2.896 1.8332 14.687 121 106 109
-5.8225 1.9505 14.804 70 64 48
-6.5475 2.102 14.959 35 14 14
-5.6093 4.2991 14.678 72 70 68
-4.4758 2.9653 14.429 113 112 103
-5.8102 2.9559 14.767 55 43 52
-0.049337 8.3427 15.1 55 37 23
-5.3139 7.9016 19.093 177 160 140
-4.3818 3.2362 14.396 63 64 66
-5.9865 5.2911 14.747 105 93 93
-2.7066 3.8522 13.994 100 93 87
-7.7109 1.3046 19.058 122 122 114
-5.3213 4.2482 14.616 68 61 57
-2.8106 7.9357 19.837 99 59 29
-5.8684 2.1161 14.811 110 94 96
-1.8804 8.1668 15.443 37 27 30
-6.4145 5.7461 14.835 77 76 74
19.727 -6.0274 19.256 126 116 117
-3.1616 1.4845 14.518 130 125 133
-6.0149 2.1693 14.849 112 100 88
-4.264 4.9159 14.326 56 41 48
-7.2265 4.1507 15.069 54 41 42
-6.9957 1.298 16.486 39 38 20
-4.3696 -0.26894 14.51 84 54 44
-1.3123 -2.8099 16.776 25 19 20
-5.62 7.8663 17.224 150 137 121
-3.5434 4.1823 14.184 165 163 166
9.3082 9.1183 15.396 159 146 130
-1.1788 -1.9925 15.912 32 24 21
-2.3533 5.533 13.86 91 81 79
-3.2898 2.4505 14.164 66 63 48
-5.8752 2.8911 14.79 78 61 63
-5.6282 1.5826 14.765 37 21 21
-8.0212 3.2966 16.458 37 40 10
-3.3534 1.594 14.219 58 42 38
-2.9177 2.9256 14.066 32 11 8
-2.3926 4.1178 13.917 173 170 165
-6.1647 2.3331 14.875 80 55 58
-3.5119 5.3035 14.134 88 84 81
-4.7613 3.431 14.492 54 40 39
-3.1654 4.6568 14.075 123 114 114
-5.9616 7.8288 16.432 139 121 107
-6.24 3.2119 14.866 132 119 100
-7.9242 2.9687 17.111 33 31 17
-5.6399 7.8649 19.121 171 146 124
-8.4427 6.5888 19.812 41 30 38
-6.9106 2.0597 16.504 44 49 15
-5.9682 2.6611 14.818 98 99 94
-5.7432 3.5783 14.741 119 105 102
-5.744 2.3999 14.766 73 59 59
14.307 1.4581 12.304 81 82 76
-5.7133 3.2114 14.746 80 70 66
1.8144 8.1184 13.895 40 38 26
2.948 7.4715 13.234 30 26 19
-3.7992 2.7824 14.264 8 4 5
-6.9122 0.93068 15.067 46 28 24
-6.3006 3.9187 14.854 106 105 104
10.228 4.67 13.325 149 154 136
-4.4241 2.7647 14.426 72 61 65
10.44 4.1931 14.184 79 65 56
-2.5661 -10.557 16.121 121 113 97
-4.9807 1.5368 14.611 91 83 76
-7.6378 0.37986 18.702 119 120 115
-0.20465 3.2432 13.812 39 28 31
-3.6254 2.6234 14.246 70 66 62
-5.3303 3.6565 14.622 76 64 68
-4.249 1.5864 14.46 148 141 123
-2.9893 4.7485 14.045 122 111 115
-8.2551 5.3031 19.502 101 85 60
-0.43328 8.1197 19.376 77 45 22
14.519 1.0155 12.818 53 39 38
-5.8468 2.6106 14.791 61 39 45
-4.2812 2.4333 14.401 132 102 92
-8.5998 3.0884 16.136 40 37 17
-6.6133 -0.77039 15.03 48 31 32
-6.8776 2.2895 15.035 36 16 20
-6.8715 1.4788 15.045 52 41 45
-2.8756 0.54737 14.843 117 77 47
-2.9915 1.1054 14.149 56 38 34
-4.3873 2.6388 14.422 89 64 62
-4.5459 2.6229 14.459 87 77 52
-5.4506 1.6371 14.715 64 48 48
-6.9409 -0.43152 19.536 57 43 69
-6.1245 2.434 14.858 46 38 38
-4.301 4.0839 14.37 69 67 68
-5.4653 4.4778 14.645 63 48 53
-4.3809 -10.682 15.636 97 90 74
-4.1942 2.4224 14.39 79 65 55
-5.8672 2.0831 14.818 98 88 92
-4.5709 2.2584 14.482 65 52 44
-2.4995 -0.69896 15.094 86 35 23
-4.5887 1.5274 14.529 88 74 65
-7.257 2.7077 15.098 61 36 29
0.80608 -10.31 15.522 145 140 110
-5.7412 2.3914 14.762 69 51 47
-8.9998 5.8608 16.143 67 29 27
-4.827 2.2255 14.541 76 58 59
-6.851 0.45807 15.059 59 41 39
-5.578 2.244 14.733 121 122 108
-8.1085 8.9563 19.726 39 29 33
-7.5787 1.0174 19.504 69 54 49
-1.2196 6.215 13.573 97 96 106
0.36363 -1.4576 20.206 42 44 30
-5.5692 1.0594 14.786 57 38 40
-7.681 1.6001 19.461 79 72 47
-6.1799 -2.7458 17.57 45 45 17
-3.4586 6.6367 14.114 75 63 51
13.395 -6.5272 18.73 252 255 207
-0.68783 -1.6997 19.043 28 22 24
-7.3485 3.3244 17.637 34 27 17
-5.2274 3.9527 14.609 52 38 43
-6.0204 6.5746 15.016 44 42 19
-8.1252 4.4746 19.517 87 75 51
-3.5128 7.5076 14.154 59 42 47
-5.1725 1.8104 14.648 66 65 60
-5.1094 4.1878 14.567 104 105 99
-3.9122 -1.8612 14.478 66 43 37
-5.9397 3.901 14.788 69 58 53
-4.6134 2.4455 14.469 51 35 38
-5.3404 3.6978 14.631 106 104 107
-2.4744 8.1306 19.307 152 131 110
-5.9 4.1264 14.763 93 87 74
-7.2681 2.765 16.698 45 54 20
-4.7193 2.2488 14.513 82 65 51
-2.768 0.42218 14.822 119 74 48
10.861 3.3695 15.983 177 179 155
13.141 -7.8906 16.602 254 167 139
-7.6648 3.6235 15.148 55 26 22
-3.7372 1.4313 14.305 61 47 46
-5.5962 -1.4087 14.827 62 48 47
-5.4314 2.2259 14.698 82 81 83
-9.1519 6.9231 16.181 108 104 85
10.701 4.791 14.934 182 187 191
-2.9637 8.1208 16.009 25 22 18
-4.6444 3.4825 14.45 49 38 36
-4.4473 3.4617 14.414 7 1 0
-5.0512 4.478 14.538 56 41 41
-8.6101 5.9693 18.34 137 133 124
-6.3353 0.75181 14.949 41 28 22
-3.6283 -0.55138 14.35 66 52 52
-6.3614 7.7869 16.186 130 113 95
11.029 1.0844 15.771 179 183 149
-3.2936 0.022634 14.255 64 54 42
-8.279 0.58702 15.875 51 33 26
-4.3896 1.8664 14.449 70 48 50
8.5393 -9.7016 14.373 175 161 114
13.257 -7.713 17.462 254 255 254
11.143 2.8013 15.798 214 230 243
-3.4998 1.8894 14.232 38 23 20
-1.6497 5.7288 13.681 137 133 132
-6.6601 3.1774 14.975 68 39 25
-2.9643 3.1198 14.065 53 46 40
-3.8359 2.3812 14.288 55 33 35
-7.6681 3.5207 15.161 48 24 20
-1.288 2.0134 13.727 128 108 101
-7.5168 2.2031 19.638 54 39 44
-2.5595 -0.5512 18.545 44 59 0
11.128 2.2042 16.802 179 182 155
-8.4739 20.872 28.148 189 121 120
-6.2789 3.6996 14.871 65 64 61
-3.7744 0.060661 14.37 73 55 51
-7.9655 4.481 15.255 54 30 21
-4.9392 3.4517 14.531 47 34 30
-7.6706 4.0423 15.658 45 42 23
-3.347 3.2126 14.152 91 84 78
-5.9357 3.1988 14.791 51 37 35
-1.9483 7.7593 19.763 154 159 160
-3.2902 1.1997 14.709 56 23 13
0.18073 -9.0428 14.123 46 37 42
9.8757 9.1549 15.927 140 119 90
-8.7595 5.8949 17.314 75 31 32
-6.6182 2.7229 14.973 58 48 39
-6.1693 7.8082 16.883 141 133 114
-5.7489 3.8625 14.736 67 59 53
-4.535 3.0332 14.444 81 73 61
-6.3961 -10.806 15.493 41 28 28
-7.0066 1.3032 16.51 35 33 20
-0.55051 7.8364 19.504 148 147 152
-13.612 20.511 28.914 198 125 122
-7.5371 3.1968 15.142 62 41 43
-6.1629 1.5963 14.89 59 35 40
-5.0128 3.5601 14.56 83 76 66
-5.8365 2.6476 14.789 102 95 83
-3.6399 3.173 14.225 137 140 131
-7.1451 4.0837 16.513 40 42 5
-1.5667 -0.95624 19.016 33 26 22
-8.3775 9.2298 15.715 56 26 26
10.284 6.0302 14.392 73 70 97
-3.3921 2.1336 14.197 87 75 63
14.729 -0.38432 12.771 206 204 162
-5.0764 6.6279 14.522 53 43 54
-3.9633 5.6712 14.224 81 76 73
-4.501 2.6317 14.45 68 52 48
-4.7775 3.8846 14.48 63 51 53
-5.5735 3.355 14.703 80 76 73
-0.71078 8.2527 13.646 20 20 30
-6.0884 0.44986 16.84 60 66 38
10.672 8.4365 17.388 172 177 150
-4.7443 7.5304 20.349 43 30 37
-2.1689 8.162 19.09 164 153 139
3.1046 8.5882 17.054 140 130 115
-8.8939 5.8125 16.568 75 30 33
-5.3348 -1.3369 14.749 62 40 42
-6.6273 2.934 14.975 46 36 31
-6.5651 1.0592 15 42 31 25
-4.745 1.8953 14.534 65 62 53
-6.4274 4.6473 14.877 76 71 72
-9.268 8.9756 17.054 83 80 61
-8.019 3.5995 19.349 70 34 34
-2.5193 -1.8264 16.606 28 20 21
-5.1514 3.78 14.581 109 98 102
-3.2836 3.2309 14.144 82 71 75
-3.6293 5.1642 14.171 103 102 97
-7.7081 1.1515 18.951 126 128 116
-6.1804 -10.82 15.858 43 24 25
-1.7947 0.94704 14.592 151 132 99
-6.4273 2.5352 14.937 49 33 43
-8.6523 6.1323 18.255 120 116 104
-4.8827 2.1016 14.564 50 39 34
-4.7258 5.8718 14.39 78 76 77
-4.3699 4.2805 14.366 91 74 61
-7.3612 3.93 15.097 60 48 50
-5.0828 1.651 14.629 65 52 42
-5.7757 2.1899 14.787 69 58 58
-5.2767 5.1247 14.563 61 52 57
-6.5344 2.1459 14.964 110 100 96
12.998 15.644 27.089 174 184 209
-5.7982 3.1607 14.759 106 89 81
-4.7277 3.4842 14.472 105 103 88
-8.9002 6.3744 17.045 88 33 33
-6.3772 4.2184 14.866 108 96 82
-8.5904 5.2869 17.52 73 29 26
-4.6901 1.6134 14.542 102 97 94
0.29241 1.9995 13.384 98 89 84
-7.1048 9.305 16.022 99 93 95
10.888 1.6627 15.32 174 178 143
-3.2712 8.0584 16.999 172 159 140
-7.4572 -2.2628 17.555 95 99 80
-6.2839 2.2022 14.904 58 44 43
-1.0092 -3.2242 17.017 28 19 21
4.1043 -10.055 13.567 76 36 22
-4.426 3.8611 14.393 70 57 51
-5.5544 3.8927 14.691 62 61 57
-3.1053 8.088 15.261 35 27 26
-1.6291 -0.91744 17.64 33 28 21
-6.7051 -0.8165 15.049 46 31 34
11.116 1.1335 16.246 180 184 150
-3.5375 -0.61387 14.333 95 58 40
-6.1496 1.7801 14.881 31 20 19
13.194 -9.0249 16.487 238 224 177
-3.5106 2.0391 14.233 86 80 66
-3.7632 3.2656 14.245 64 53 52
-6.0089 -4.3186 15.009 44 30 27
-9.0806 6.3724 16.107 60 29 27
-2.3293 -1.3359 17.634 27 22 21
-4.4962 3.137 14.434 91 74 67
-1.3193 6.4006 13.595 100 95 96
-2.5481 1.8559 14.542 35 21 18
-1.7753 1.8452 14.16 52 24 20
-6.5716 0.45953 15.003 48 32 33
-2.6831 4.8846 13.954 27 17 18
20.683 3.653 11.383 32 23 23
-4.9029 4.0259 14.52 95 80 77
-5.4529 3.847 14.658 57 45 49
-5.2906 1.7644 14.677 89 85 74
-5.9932 3.4153 14.814 67 51 45
-0.56139 3.086 13.519 98 101 94
-4.1619 2.2349 14.373 124 112 90
-5.7854 2.2965 14.777 66 60 62
-3.514 5.0553 14.138 43 27 28
-7.4514 2.1487 19.62 40 28 32
-3.2441 7.7953 20.071 51 31 30
-2.94 6.5029 13.987 71 60 66
-6.6891 -0.7522 15.042 57 46 44
-7.1694 3.594 15.067 75 61 52
-3.5409 1.4404 14.262 102 87 82
-4.7096 1.7242 14.532 92 91 87
-5.5584 7.8734 17.622 170 152 131
-4.2118 2.2578 14.39 59 50 46
-6.6994 2.1263 14.998 58 41 31
-5.1871 3.6507 14.588 61 49 45
-5.2353 4.6243 14.574 87 69 69
-3.5399 2.313 14.225 115 102 88
-4.8032 3.6785 14.509 61 51 61
-4.7064 2.2909 14.509 72 64 51
-3.7616 4.6734 14.211 71 58 65
-8.7672 3.7941 15.845 50 40 27
-6.9829 3.9937 15.022 36 19 22
-8.12 0.87841 16.812 48 33 30
-0.78351 2.8321 13.587 98 93 97
-4.995 1.9875 14.591 58 51 45
-3.2875 1.9354 15.033 57 24 15
-8.3629 9.2792 19.181 93 85 74
-4.5529 3.4998 14.442 97 86 83
-1.554 2.2449 13.78 115 105 98
-4.9688 7.9303 17.835 158 140 116
-5.8426 -1.5861 14.889 85 74 72
-7.2977 2.5188 15.905 32 30 11
-5.1909 3.6624 14.591 98 69 60
-7.7229 6.2193 15.197 76 71 65
-4.8674 4.3273 14.498 58 56 57
-5.0837 2.0897 14.609 71 50 53
-7.0563 1.3188 15.09 52 36 36
-4.7463 3.6874 14.484 72 70 73
-5.5225 1.3071 14.754 72 66 53
-5.3337 1.9958 14.682 67 53 52
-5.9708 2.9578 14.808 80 74 63
2.4014 7.9565 14.579 36 26 25
-7.3485 1.8831 19.564 44 31 40
-4.3292 3.8888 14.389 78 78 80
-4.9769 1.6682 14.598 78 49 46
-6.1755 3.5602 14.839 18 15 17
1.3802 -7.6632 13.554 96 75 55
-5.1841 1.6447 14.642 37 21 22
-4.4003 2.191 14.443 56 39 31
-7.6365 1.8223 19.719 40 31 34
-4.3171 1.7522 14.436 41 32 25
-4.4567 2.8506 14.435 83 80 65
15.918 -4.1651 17.005 251 255 208
0.58482 -1.3681 18.022 43 43 22
-7.5977 2.2572 16.036 33 33 14
-3.4204 8.0282 14.163 48 38 45
-2.7082 -10.523 14.755 55 41 41
6.3736 -4.2426 12.258 128 112 92
-2.3395 3.9219 13.9 137 119 109
-6.0633 2.6783 14.838 46 36 37
0.82081 -3.0882 16.107 41 36 15
-3.7061 1.7722 14.29 63 42 36
-4.4069 -10.708 16.937 74 32 34
-4.8662 3.5974 14.519 79 70 70
-4.6552 1.8901 14.52 93 76 64
-5.7097 3.3763 14.74 93 78 71
-5.0867 3.5104 14.576 89 86 81
-3.3428 2.3796 14.189 85 73 59
-2.9815 1.8898 14.116 77 67 58
-6.9386 -1.117 16.905 32 33 25
-4.2328 2.6551 14.384 60 55 47
-7.1578 1.2783 15.111 48 29 31
-6.7809 0.59018 16.982 31 28 19
-5.7963 0.094325 14.843 68 54 54
-7.6265 1.9665 15.167 48 35 32
-8.4494 6.2166 19.261 131 123 110
-8.865 5.6844 16.638 51 22 19
-5.8361 2.1545 14.805 88 71 62
-1.7552 2.0159 14.179 61 22 10
14.696 -5.0675 10.678 94 90 59
0.080587 3.4275 13.487 33 27 29
-7.7195 3.8144 15.791 45 30 14
-7.2888 -1.0536 19.409 77 63 60
-6.9684 0.68156 16.142 33 31 17
-4.221 3.9801 14.334 34 10 8
-3.946 7.9953 16.588 51 59 38
-5.2657 3.5325 14.616 63 48 44
-8.8298 9.237 17.242 69 26 32
-5.5395 3.6663 14.677 74 70 67
-5.594 5.2379 14.632 76 60 59
-4.8025 3.378 14.504 59 53 53
3.0419 8.5898 18.086 121 105 80
-2.389 -1.2502 20.696 66 80 19
10.761 -9.5492 15.048 203 186 140
-4.6852 3.9205 14.472 87 85 86
1.3894 6.1926 12.96 84 83 88
-5.076 3.7402 14.561 68 56 60
-5.558 2.0888 14.738 39 21 27
-3.8063 -1.3911 14.436 58 41 33
-5.7568 3.0823 14.751 117 118 110
-2.9264 3.2086 14.058 76 75 80
-5.7484 3.7047 14.739 81 75 79
-4.2353 6.7269 14.727 25 24 20
-6.1877 2.5807 14.876 51 38 46
-2.5947 4.8742 13.93 125 121 118
-6.3952 1.6334 14.943 98 93 95
-5.5259 1.1217 14.771 46 33 32
-4.9414 1.6768 14.58 37 33 22
-6.96 3.96 15.017 63 53 44
-3.1533 1.3131 14.19 32 23 21
-3.0667 2.1383 14.118 66 55 49
-6.8134 3.1069 15.01 91 82 72
-7.555 2.1188 15.996 32 22 20
-4.6738 6.7781 14.43 41 31 29
-0.39222 4.1674 13.8 36 31 37
-0.59987 7.3235 15.077 53 29 32
-6.0542 -10.814 20.477 165 159 130
-2.9087 1.8982 14.098 28 18 9
-1.6925 2.2103 14.696 57 25 19
-4.6569 4.3454 14.443 67 55 58
-4.1245 2.4995 14.366 116 98 84
-6.0038 -2.5487 16.919 39 37 22
-4.5841 3.4208 14.453 73 62 64
-2.9605 4.7465 14.029 77 72 79
-5.753 3.065 14.75 60 45 42
-7.303 -1.1721 19.258 61 30 46
10.801 6.9791 17.368 165 167 151
-7.6272 -3.2182 16.467 57 45 36
-8.8471 6.9195 17.796 125 119 103
10.283 5.18 13.852 155 162 145
-6.4023 4.2927 14.877 88 72 75
-6.653 2.2046 14.993 80 58 54
-4.473 7.3972 16.191 31 32 18
-2.9427 2.4825 14.099 59 45 47
-6.7001 2.4867 14.994 41 24 22
-6.6926 1.1902 15.024 46 32 29
-4.4451 2.1775 14.456 65 50 47
-2.0964 -10.527 16.261 121 105 82
-9.3106 8.9516 16.794 94 79 72
-0.96414 7.8586 19.546 45 32 42
4.8966 -9.9923 14.765 173 160 108
-0.62858 8.1901 15.604 33 24 25
-3.5522 2.9638 14.214 121 116 115
-8.0621 6.0578 19.664 57 36 45
-8.0187 3.3051 16.457 36 39 15
-4.0463 -2.9146 14.575 64 40 36
-7.56 3.2734 15.144 49 31 29
-8.5752 5.7714 18.326 88 84 68
-4.3384 2.3121 14.421 72 66 57
-6.9414 -1.9737 19.607 50 35 54
-6.3281 1.6092 14.932 79 70 66
-2.9136 3.2882 14.054 82 77 81
-4.109 2.6612 14.355 55 50 47
-6.1629 1.0262 14.903 58 59 54
-7.0168 2.1605 17.41 42 22 24
-4.0974 -10.658 15.505 96 89 71
-5.8976 3.5424 14.767 56 48 42
-6.9971 0.94233 17.544 64 81 47
-3.0317 1.3405 14.154 66 49 42
-6.1056 3.8903 14.824 93 88 84
-4.2219 7.9854 17.305 124 104 83
-6.5429 3.0181 14.951 70 63 61
-5.8213 3.9313 14.758 66 55 57
-6.0962 2.1478 14.86 44 29 32
-4.9375 7.7452 20.328 91 60 39
-5.2177 4.1755 14.591 52 34 35
-7.4157 3.2879 15.535 43 46 15
-7.5261 1.2659 15.241 27 24 21
-4.9965 1.7193 14.599 88 64 59
1.0804 8.4344 18.326 149 125 105
-5.8142 3.4527 14.762 68 68 70
-8.3991 6.2511 19.565 86 65 44
-9.3266 8.7791 16.571 87 76 71
11.72 17.018 27.675 188 185 184
-4.3063 3.6012 14.384 81 73 68
-3.7949 2.4228 14.286 53 50 35
-4.8323 1.2561 14.586 64 36 37
-3.0278 -1.5066 16.512 44 42 27
-4.9173 4.3032 14.511 85 83 86
-8.2322 4.9859 15.336 57 39 36
-7.6196 2.3118 16.169 34 32 15
-5.1186 3.5291 14.576 51 39 39
-8.4742 3.2794 16.87 50 40 31
-5.6546 -0.57491 14.816 58 41 47
-5.3236 4.2973 14.612 93 94 91
-4.6301 1.9744 14.516 61 52 48
-5.5179 3.875 14.679 75 74 79
-7.2875 2.5458 15.105 41 31 30
-6.0298 2.2283 14.842 70 61 64
-5.177 4.1007 14.586 89 74 79
-4.4754 2.5937 14.445 119 116 99
-5.6802 2.4474 14.754 91 80 76
-7.0195 9.3231 16.748 106 108 95
-5.8647 1.7332 14.816 53 44 45
-6.0567 4.0067 14.808 72 58 49
-7.4157 1.3028 19.639 62 43 49
-6.9522 -2.1675 19.622 48 35 45
-4.4508 2.3163 14.439 72 68 60
-7.7514 0.56916 18.272 85 88 80
-5.8202 2.9293 14.768 66 61 63
-8.4963 4.985 17.402 80 34 36
-5.8245 3.212 14.763 58 36 44
-2.6623 3.2614 13.985 75 71 70
-4.9163 2.0554 14.569 16 0 0
-5.0195 4.1632 14.55 96 101 94
-4.0053 2.0654 14.363 62 52 49
-2.8724 2.0046 15.041 61 28 22
13.584 15.707 26.132 195 207 231
-5.9664 6.0678 14.692 72 66 66
-4.6209 0.84345 14.545 74 54 55
-4.2822 6.2252 14.303 73 69 70
-5.1479 -3.3714 16.598 37 35 23
-7.6369 3.9849 16.565 37 24 17
-5.7706 2.6009 14.76 86 80 88
-4.8108 3.5125 14.504 97 97 89
-2.4305 -0.85893 14.089 43 35 33
-5.7472 5.2064 14.68 92 82 90
-3.0168 1.9605 14.123 75 66 49
-7.8548 -1.7871 16.097 50 24 23
-8.2177 4.8732 19.36 120 113 95
-6.34 2.874 14.907 84 75 66
-4.6531 5.0914 14.419 99 87 89
-6.0117 -2.2665 14.942 68 49 51
-8.8784 6.6005 17.43 118 114 102
-4.525 3.6825 14.436 98 79 65
0.231 8.3445 15.355 32 23 26
-4.361 2.6524 14.42 99 97 76
-5.8762 2.1783 14.814 60 45 40
-4.7685 4.5263 14.466 42 31 34
-7.34 -0.88722 19.259 86 84 80
-8.2252 1.3232 16.606 44 32 32
-8.2368 6.5794 19.72 65 43 48
-5.1283 3.6245 14.568 91 74 67
-6.0612 4.311 14.794 86 77 76
10.477 6.121 15.308 171 176 154
-5.4645 1.4908 14.727 89 78 74
15.555 -3.136 15.635 254 255 240
-4.2994 3.3606 14.38 91 90 85
4.7038 8.5406 18.356 74 46 35
-3.1986 1.4123 14.188 43 32 30
-8.024 -2.5067 15.349 26 22 21
-8.5346 6.4739 19.05 119 109 97
-8.751 4.0882 16.094 35 25 13
-7.1137 2.7588 15.073 80 49 47
-8.582 3.1088 16.234 44 33 18
-6.0514 3.0517 14.831 88 66 61
2.3821 7.9608 14.447 32 27 30
-5.4877 4.1141 14.648 31 22 23
-4.0973 -4.2298 17.311 32 30 18
-7.2241 2.5803 15.104 56 30 29
-3.7166 1.7591 14.301 90 85 72
-3.4535 8.0363 16.748 38 28 37
-3.8163 4.5855 14.22 85 69 70
-1.0321 -0.95048 20.775 53 70 15
-8.5367 5.9049 18.634 130 130 112
-8.6272 9.2399 17.071 67 44 46
-4.0466 3.2897 14.316 66 64 69
-6.3571 -4.8873 19.498 61 44 68
-4.0851 1.2891 14.403 49 40 41
-6.2175 3.0816 14.871 75 69 57
-6.2797 2.0575 14.907 62 47 52
-7.7695 9.3065 18.357 64 26 30
-2.4483 4.5433 13.909 114 120 110
-6.7424 3.5156 14.982 78 71 65
-4.5986 3.2046 14.462 74 72 67
-1.4233 3.045 13.719 108 104 105
-5.2808 3.4952 14.626 77 65 60
-5.2883 0.77105 14.699 96 90 63
-4.4224 3.0343 14.424 76 64 53
-8.3361 0.29248 15.567 34 24 23
-4.455 6.297 14.34 69 63 67
-6.0224 2.304 14.84 57 51 53
-6.3216 2.9331 14.905 71 58 50
-5.4563 3.4579 14.647 56 52 50
-6.1804 -2.0923 14.979 63 54 49
-7.6963 -4.0096 15.762 40 32 21
-8.6076 3.6244 16.488 58 42 31
-5.9601 0.84013 14.869 119 106 100
-6.8954 3.4451 15.023 72 62 59
-6.9517 3.2166 17.484 73 78 40
-4.5844 2.3993 14.464 61 46 46
-4.6862 0.81311 14.559 97 94 87
-5.7851 3.0686 14.764 79 60 45
-2.7881 8.095 16.875 188 173 154
-4.9872 1.6287 14.616 77 51 40
-6.8264 3.1108 17.496 83 54 41
-5.1798 -0.067556 14.694 29 22 6
-2.2875 7.5237 13.899 67 60 66
-6.5737 2.9221 14.96 77 72 65
-5.8237 2.7509 14.771 47 38 43
10.118 6.367 13.563 44 34 31
-5.061 3.5489 14.565 64 44 37
-2.8051 5.7221 13.949 92 82 80
-4.6172 4.7388 14.417 96 87 78
0.6178 8.3742 13.951 26 23 35
-7.645 -2.9 16.576 71 60 54
-6.7008 3.331 14.973 68 60 56
-8.1771 -0.26658 15.81 57 42 35
-4.0785 2.7583 14.338 43 34 35
15.738 -4.2556 15.987 253 255 235
-5.6409 4.7447 14.669 85 56 54
-4.3811 2.9436 14.407 55 39 49
-6.6164 0.95953 15.01 46 30 36
-7.7757 2.0138 19.298 110 109 99
-6.0027 6.0791 14.702 78 69 74
-6.4429 4.4958 14.88 76 67 63
-6.4661 1.796 14.953 68 56 52
-3.4978 3.2909 14.184 84 77 73
-7.4878 1.0988 17.249 29 29 21
6.6009 -9.8571 14.963 174 161 116
-2.6647 8.1087 15.382 49 46 59
-8.3036 5.4834 19.419 124 114 97
-8.4558 5.2771 18.529 130 129 109
1.4369 8.4499 17.019 157 152 144
-6.8594 5.4698 14.982 90 81 73
-7.4885 0.85698 17.7 63 33 24
0.45656 7.8419 13.336 65 45 50
-5.1122 3.7546 14.573 107 87 80
-8.6367 3.3024 16.125 47 44 18
-3.254 -4.4381 16.436 42 37 8
-7.002 2.4852 15.051 89 62 74
-4.8588 1.9287 14.562 65 66 61
-7.3844 8.8784 19.725 56 36 38
-6.0663 6.3282 14.752 125 126 128
-2.9777 7.6155 14.047 64 56 67
-5.9418 2.4602 14.819 59 45 44
-6.8847 -4.5396 19.254 65 50 36
-2.8215 1.7811 14.085 61 50 46
-5.3592 7.9138 16.128 74 47 48
-5.5187 0.23207 14.771 40 32 30
-2.0789 8.1416 15.311 65 82 33
-5.7844 2.9335 14.776 72 64 63
-6.672 0.41298 16.978 34 36 15
-8.3092 0.59659 15.739 55 41 37
-7.4971 2.029 15.419 34 38 15
-2.7231 -8.7956 14.487 87 73 63
11.474 15.892 27.053 217 228 245
-6.1272 3.6831 14.837 27 15 15
-3.5825 2.1378 14.239 30 16 9
-4.8991 6.7719 14.597 32 34 22
-3.8245 -0.048202 14.383 68 64 63
-4.5213 2.7179 14.45 76 67 71
-4.4744 2.8445 14.436 59 53 53
-4.6938 3.3769 14.478 76 77 79
-4.3798 2.9544 14.409 66 56 61
-7.2552 4.2352 15.073 66 60 58
-2.2441 8.1524 19.183 146 129 106
-5.8606 1.9377 14.807 64 58 60
-5.4962 2.2079 14.7 62 47 42
-7.0641 2.4323 16.515 45 57 17
-8.3808 2.5701 16.786 36 26 24
-6.9764 1.0851 15.075 51 34 27
-4.0376 6.1634 14.234 82 81 78
-3.9976 3.6817 14.287 61 54 61
-7.532 2.6781 19.634 39 26 31
-5.0691 -3.2857 16.584 46 44 33
-6.8673 4.505 14.979 74 64 62
-6.688 2.034 16.696 52 73 34
-8.7262 3.5724 15.894 57 38 31
-8.6897 8.2755 19.658 90 64 41
-5.6665 3.457 14.717 56 49 44
-4.297 3.2746 14.387 69 70 74
-4.9344 1.9609 14.564 53 40 31
-8.9387 6.6351 16.385 36 25 28
-4.1834 1.1666 14.432 87 74 71
-4.0249 3.4916 14.316 103 96 86
-9.0788 9.2205 18.127 98 94 83
-5.9373 3.8601 14.774 32 9 17
-5.9442 3.3384 14.792 62 53 56
-4.3816 2.3758 14.434 84 73 61
-5.936 1.711 14.827 46 32 32
-0.42181 6.4622 15.745 87 91 102
-3.3654 1.2588 14.336 42 23 15
-7.4217 0.0246 19.687 42 30 38
-0.029094 8.3231 19.036 105 73 58
-6.1826 0.44196 14.926 76 63 55
-2.9689 1.9841 15.054 52 28 21
-4.8393 2.0189 14.562 72 63 55
-5.5954 3.607 14.691 82 75 63
-4.0705 8.004 18.164 180 167 151
-2.7736 2.0056 14.069 69 57 55
-8.7329 3.3494 15.681 54 39 32
-7.4103 -1.3259 18.608 69 34 48
-6.1265 2.2539 14.871 67 48 54
-6.0577 2.8574 14.831 69 62 66
-3.6061 2.8571 14.222 120 110 100
-0.091105 3.0677 14.083 29 23 25
-7.3819 2.3509 15.893 34 36 14
-4.2183 2.5933 14.387 71 54 47
-6.1249 1.731 14.884 80 70 61
-4.9017 2.0706 14.573 68 56 60
-5.6128 3.795 14.702 103 98 86
-7.5731 -1.6303 15.208 41 26 23
-3.9953 2.754 14.321 59 50 53
-6.9017 4.3715 14.99 68 62 64
-4.3404 3.359 14.39 89 69 71
-3.1625 2.7978 14.127 101 86 91
-5.6233 2.0455 14.742 32 21 25
-5.0945 3.6946 14.562 83 74 74
-5.0327 4.0724 14.555 99 90 91
-7.9262 2.4279 18.889 138 143 136
-2.9636 8.0722 15.526 42 35 47
-6.7487 1.655 15.018 50 33 41
-7.4047 -0.61052 19.14 107 105 97
15.753 -4.4804 16.007 249 254 206
-1.6071 8.0296 19.583 89 47 31
-1.3456 8.2183 17.598 147 137 112
-4.9873 3.6777 14.544 83 67 62
-4.4912 3.8061 14.425 158 157 155
-7.3476 5.7667 15.121 71 55 55
0.37485 4.5823 13.252 40 32 32
-0.92938 8.0479 13.654 74 68 80
-7.8044 9.2672 16.157 62 27 28
-7.372 2.4242 19.575 44 32 43
-2.1828 8.1526 19.327 148 130 113
-2.5064 2.5317 13.996 65 49 56
-2.0742 -0.50592 17.84 41 42 15
-4.7742 1.8749 14.539 38 24 21
-7.5003 3.3343 19.599 50 37 46
-7.5844 7.2304 15.171 90 87 88
-8.004 4.7808 15.272 77 64 60
-9.3104 8.2508 16.243 95 86 74
0.26241 4.0807 13.738 61 47 60
-1.4538 -1.4934 21.52 83 97 43
-0.71143 7.373 14.832 71 22 25
-4.76 1.7645 14.536 87 80 64
-2.7059 1.7775 14.49 45 24 19
-6.1131 3.6116 14.835 66 56 54
-3.3042 -0.69248 14.284 87 83 74
-5.2487 3.566 14.619 61 50 51
-7.1223 2.6447 16.572 50 69 23
15.929 -4.9701 15.665 224 227 211
-3.7056 2.81 14.251 46 30 40
-5.7309 2.4531 14.765 71 59 61
-2.8255 2.2821 14.081 88 73 66
-2.9626 7.9106 19.887 97 70 41
-4.994 3.6016 14.556 62 56 50
-6.9788 1.0892 16.135 55 28 17
-9.0041 7.1602 17.129 130 128 115
-6.111 0.73816 14.895 56 41 42
-6.1362 1.0747 14.895 53 36 42
-1.4514 8.208 17.543 132 114 92
-7.2957 0.93116 19.6 58 47 51
-7.5762 -0.02579 18.72 99 100 93
-4.67 1.0253 14.558 71 62 53
-3.7111 1.8844 14.288 88 68 43
-8.5912 3.1555 16.225 44 36 22
-1.4903 5.7419 13.635 104 95 98
-5.8197 7.8479 19.037 163 150 134
-6.9304 1.542 15.058 38 31 23
2.5464 1.2392 15.025 184 183 162
-7.9529 9.2957 18.178 69 44 50
-5.5196 7.8796 18.882 156 139 119
-8.6573 5.4182 17.406 81 29 33
-4.0795 2.1068 14.363 53 34 27
-8.5587 2.1713 15.67 49 35 29
-7.2853 4.4958 15.07 70 55 58
-4.1607 5.2453 14.272 79 68 66
-5.1847 3.7934 14.596 117 113 108
-5.3812 1.2466 14.714 53 38 43
-4.004 4.4159 14.283 123 94 91
-4.2415 3.3652 14.359 43 33 41
-7.5398 3.5969 19.601 51 39 43
-2.9997 -4.3657 16.699 31 21 20
-4.5484 2.5549 14.458 92 75 59
-7.2671 -1.1052 19.481 63 49 49
-4.3868 4.2134 14.383 114 90 88
-4.8124 1.4713 14.576 144 138 116
-5.886 1.8533 14.817 45 31 28
-5.3268 -0.27506 14.735 47 29 25
-4.9706 4.0013 14.494 56 52 49
-1.2533 3.1048 13.68 121 115 117
-4.5522 2.5407 14.465 84 66 46
-1.5908 -1.2072 17.665 29 27 19
-6.6931 3.7524 14.954 16 7 5
-5.5823 3.3959 14.704 71 69 68
-5.8905 7.8467 18.05 172 161 138
-2.3121 3.1496 13.92 88 83 89
-4.7416 2.2056 14.518 91 86 81
-4.6808 -10.732 17.725 118 116 101
-3.1841 6.3133 14.038 97 88 93
-5.8053 1.8465 14.801 75 67 65
-8.0317 3.559 19.268 75 36 38
-3.7333 -1.0853 17.776 61 61 40
-8.2855 0.88879 16.048 54 40 33
-7.9545 0.83174 17.498 34 26 23
-5.2751 7.9061 18.917 215 191 165
-5.8111 4.4829 14.716 99 83 80
-6.3067 6.4775 14.85 96 95 93
10.09 5.9051 13.182 75 75 67
-6.3055 1.2116 14.928 15 3 3
-6.228 1.9368 14.888 34 28 28
-5.597 1.4681 14.76 13 6 12
10.736 5.462 15.484 176 190 201
15.04 -2.9213 13.116 255 241 195
-7.047 3.0435 15.047 67 40 44
-3.6172 8.039 17.883 181 165 140
-4.4502 2.9249 14.418 79 63 63
-3.3362 3.3762 14.149 55 46 44
-5.7971 2.121 14.792 82 71 66
-6.2251 2.7928 14.866 62 55 63
-3.3233 1.8601 14.835 68 23 17
-6.1812 7.8111 17.079 150 133 123
-2.8875 5.3053 13.98 95 91 82
10.329 6.3782 14.701 161 168 150
-8.3851 5.151 18.762 138 136 124
-2.3758 -0.89372 17.344 51 51 33
-5.3538 1.7801 14.691 66 28 15
-6.7269 2.613 15.004 82 71 73
10.345 6.495 14.819 162 170 149
-6.4204 1.4657 14.959 79 48 53
-3.2882 1.9047 15.01 61 22 14
-0.41359 4.0495 13.458 161 161 161
-6.1563 2.7328 14.861 90 86 83
-3.8806 1.664 14.336 50 43 34
-2.2586 -2.6643 14.319 35 23 24
-2.3724 0.82281 14.723 136 105 85
-9.023 8.9253 18.349 108 100 89
-5.6445 3.5571 14.707 49 38 36
-4.1958 3.3497 14.357 38 29 32
-5.1647 3.959 14.59 62 43 47
-5.7048 3.4371 14.739 102 103 101
-5.7219 1.3727 14.797 56 50 53
-4.2472 7.768 20.224 90 58 43
-4.6571 3.3821 14.468 85 71 71
-0.61321 6.5866 13.404 100 89 97
-6.7211 2.9731 14.989 73 53 54
-7.5433 0.82322 19.526 67 49 45
-5.4522 4.2908 14.637 50 36 35
-1.8651 7.2194 15.941 84 36 48
-5.5103 -10.776 16.26 57 27 29
-3.2792 0.47804 14.245 107 98 83
-8.0696 9.2822 18.565 73 29 35
-6.9455 2.376 16.182 38 38 2
-1.9506 7.4987 13.835 83 73 76
-2.8616 4.124 14.017 95 93 96
-3.0107 1.7108 14.126 59 41 39
-3.8494 4.3141 14.251 100 71 42
-7.2196 9.3362 17.92 129 127 123
-8.0335 0.8452 17.164 46 32 31
10.588 2.6999 14.267 55 39 39
-8.2422 1.8224 15.795 50 40 38
-4.9738 7.9183 19.925 151 130 101
19.774 -3.4828 19.338 200 123 94
-7.1111 2.2124 18.275 51 56 15
-4.8085 0.88174 14.592 112 97 74
-8.1704 5.4948 19.755 61 41 48
-5.5019 7.8795 18.412 174 150 127
-5.7044 2.4654 14.75 41 29 29
-2.9607 8.1214 16.022 29 21 19
-1.6843 5.7726 13.688 108 102 103
-4.7837 1.9319 14.549 65 48 54
-4.2378 3.2429 14.367 90 85 91
-9.0709 6.71 16.438 39 25 25
-8.1704 2.2929 15.579 39 28 23
-6.4823 3.838 14.905 100 96 90
-4.8004 1.1462 14.581 55 49 38
-7.5428 2.3962 15.383 36 38 16
-3.0825 -10.584 14.701 44 35 31
-4.1856 1.387 14.424 62 45 39
-4.507 3.0353 14.437 114 102 96
-4.6224 1.9631 14.503 69 60 53
-2.1047 7.3767 13.851 63 53 47
-4.3653 3.4621 14.404 76 60 60
-4.4169 1.8455 14.451 36 21 16
-8.7704 7.298 18.511 130 125 105
-7.3161 0.66724 15.143 49 23 20
-7.2395 -2.329 18.772 94 89 88
-4.4049 3.3676 14.413 103 100 92
-8.0443 3.7991 16.894 32 28 17
-7.7095 2.7273 19.702 44 32 36
-3.3568 2.1557 14.185 86 66 57
-6.5115 -0.76873 14.998 49 34 33
-5.0379 3.5233 14.569 81 80 78
-6.7441 -3.1691 19.575 47 35 48
-0.67809 2.7419 13.56 106 101 97
-4.8426 3.5284 14.512 95 75 74
-7.0753 1.7601 16.432 35 34 13
-4.6509 3.2893 14.469 86 79 79
-4.4457 2.7549 14.433 98 99 90
-6.3926 3.3477 14.887 55 34 41
-7.2743 2.9393 15.835 36 39 8
-4.6549 1.3192 14.555 109 98 76
-3.2882 8.0612 17.297 167 151 127
-6.7799 2.116 16.738 51 59 22
-4.1316 3.2253 14.349 58 52 54
-4.6582 4.6065 14.441 88 78 69
-3.3001 4.5853 14.109 68 61 64
-2.3043 8.3684 18.897 109 126 195
-4.9442 1.632 14.608 98 94 82
-5.7474 3.3857 14.742 81 64 70
-2.6619 9.7076 15.383 35 22 19
-6.4489 2.4831 14.938 78 59 63
-8.6699 7.3018 19.04 130 120 103
-6.2383 2.8415 14.888 70 42 51
-2.4139 3.1306 13.954 95 89 89
-3.7672 4.1647 14.229 58 52 49
3.1124 8.5903 17.08 151 138 128
-6.4062 -6.5971 19.587 52 33 41
-8.4224 1.3753 15.734 42 32 26
-0.20787 8.4692 17.627 155 171 212
-2.8327 5.6479 13.95 58 57 55
12.552 15.84 25.172 56 59 73
-5.9829 3.1447 14.807 112 105 99
-7.7553 2.7101 16.403 30 27 18
-6.99 3.8924 15.022 73 59 56
-4.537 2.7203 14.453 98 75 69
-8.5812 3.0705 16.207 43 35 20
-2.9302 -0.47201 18.53 40 38 13
-5.7297 3.4175 14.746 40 30 28
-5.549 3.4021 14.69 87 80 73
-5.8513 2.3417 14.803 70 59 63
-7.3139 2.51 15.954 32 33 14
0.92782 8.4375 15.305 34 25 27
-8.1433 3.2056 15.816 36 34 18
-8.1513 0.47452 16.374 39 29 24
-5.3355 4.1496 14.643 72 65 63
-5.2459 3.7947 14.616 84 77 82
-7.5425 9.2899 16.665 70 30 31
-4.2902 3.4548 14.375 75 71 72
-4.8912 2.01 14.57 101 77 75
-3.115 7.0677 16.329 64 25 34
-8.5883 3.1081 16.198 42 34 24
-0.69856 8.247 13.847 60 61 81
-9.0766 6.2427 16.009 69 30 28
0.78731 8.4037 18.568 131 113 89
-8.2148 0.96439 16.422 41 31 22
-6.0217 7.8193 15.735 120 110 91
-7.167 3.8664 17.464 60 54 20
-3.8888 8.0266 19.103 177 164 147
-4.6565 1.9263 14.527 80 63 61
-7.6338 8.5561 19.681 51 33 40
-0.47991 7.8995 19.444 44 33 39
-6.7927 5.8552 14.953 85 75 66
-4.9418 3.7902 14.529 61 52 56
13.501 -8.3906 18.269 250 245 210
-6.8669 -3.5454 15.153 33 22 20
-5.598 7.8711 17.796 175 155 133
-7.0618 3.5465 16.691 42 50 28
-4.3914 2.1733 14.437 47 36 32
-3.0443 1.781 14.666 43 24 18
-4.8258 3.9652 14.474 118 115 110
-4.5397 2.0491 14.481 108 85 77
-7.6804 4.3291 19.589 40 31 36
-6.5684 0.43021 16.35 45 44 23
-4.0395 4.2346 14.291 158 159 153
-9.093 7.0069 16.537 120 114 100
-5.1179 1.3907 14.651 61 45 30
-6.2194 2.389 14.89 84 72 72
-6.111 3.8309 14.829 63 48 51
-7.4318 5.8536 15.154 73 55 45
-6.498 0.37993 16.598 40 25 19
-5.657 4.2759 14.688 72 61 59
9.9268 -9.7635 17.835 62 23 23
-5.8629 4.2022 14.759 80 80 74
-5.0671 7.9314 19.232 187 171 148
0.62778 8.3923 16.437 168 150 126
-8.6175 3.229 16.162 49 38 23
-4.7541 3.8097 14.476 99 99 100
-6.3027 4.4746 14.851 44 28 31
-5.9178 2.5232 14.808 17 16 11
-3.8045 3.2182 14.27 88 86 84
-6.3422 3.8981 14.858 107 100 82
-3.4656 7.7939 20.092 79 43 30
-5.3354 1.562 14.694 114 108 96
-2.8968 4.8727 14.004 99 76 70
-3.3021 1.1997 14.659 67 24 17
-4.2999 2.1659 14.423 46 35 34
-3.8827 6.6539 14.228 74 64 63
-5.8784 2.0833 14.818 93 87 84
-4.8287 5.772 14.416 74 73 78
-3.707 8.0371 18.333 166 151 130
-8.2909 9.2403 15.935 63 28 23
-6.0243 2.8188 14.824 64 63 68
-5.5701 3.7504 14.685 37 25 27
-4.6766 -6.1318 14.738 70 52 57
-4.4446 2.3504 14.437 26 18 16
-1.8213 -2.9883 15.122 55 43 26
-7.4832 2.5128 15.349 34 36 22
-5.5969 1.1185 14.798 55 37 35
-3.7339 7.2952 14.208 63 55 58
-6.3826 2.7532 14.922 102 94 91
-8.1278 -0.43348 15.382 39 28 26
-3.4657 0.81982 14.271 91 83 81
-4.9467 1.7535 14.591 82 72 70
-1.8171 8.255 14.98 48 45 59
-3.0011 -2.5527 14.468 35 25 23
-2.7614 0.7308 14.813 128 91 72
-4.1526 8.1778 18.699 116 140 214
10.3 4.0704 13.398 19 11 8
-5.3499 0.90552 14.705 27 17 5
-2.1868 -0.41501 18.146 38 40 17
-2.9059 1.6697 14.432 25 0 0
-6.5246 4.1176 14.899 83 74 69
-5.169 1.2596 14.653 39 26 20
-4.479 2.6634 14.447 65 58 43
-7.3278 -3.6494 16.534 41 31 25
-5.2471 1.3571 14.676 53 40 47
-6.8537 3.2615 15.024 71 57 57
-7.8496 9.306 19.485 44 21 26
2.5637 8.542 16.529 123 118 107
-5.427 3.719 14.656 76 66 69
-5.6667 4.7196 14.666 99 95 94
10.763 4.2573 15.901 176 180 152
-4.6335 3.3931 14.464 69 57 66
-5.3527 2.1997 14.677 42 38 36
-3.5816 2.3757 14.243 119 108 101
-7.3584 1.969 17.545 36 24 22
-8.8673 6.0675 16.942 83 31 32
-2.3098 3.6572 13.913 54 48 49
-3.2573 4.1885 14.102 106 94 94
12.31 -9.405 11.776 150 131 94
-6.5322 0.2909 15.005 58 41 33
-2.5121 4.1439 13.937 144 141 132
-4.4329 2.6259 14.443 75 67 72
-7.5434 2.6501 17.953 60 26 29
-4.3895 2.674 14.423 96 86 86
-4.4028 3.4741 14.407 64 59 60
-7.7019 9.322 19.702 66 37 36
-4.2861 0.61322 14.472 82 82 72
-4.5256 3.4252 14.445 99 97 103
-6.5573 1.1707 14.993 73 59 59
11.05 4.1302 17.328 175 180 158
-4.9301 5.0977 14.487 75 66 59
-8.7924 6.5153 17.827 124 119 112
-7.1008 1.4562 15.096 44 25 25
-2.1338 1.8883 14.395 49 24 20
-5.5937 3.7122 14.701 38 22 25
-6.554 6.4086 14.91 72 66 68
-3.06 0.93562 14.879 123 86 68
-2.9492 4.5459 14.027 109 100 101
-4.5397 2.6384 14.453 50 44 48
2.3674 2.8692 13.321 34 28 30
-5.804 2.914 14.771 121 108 94
-4.6063 3.2596 14.467 105 82 79
1.2241 8.4243 13.593 60 52 76
-5.6826 2.1922 14.759 92 64 59
