-0.6088 6.673 8.9502 45 29 31
-1.2669 6.6469 8.7285 78 65 72
-1.4112 10.018 5.7578 82 75 65
-1.6275 6.941 8.3448 65 48 50
-1.6618 5.2741 9.7669 53 41 45
1.9033 7.4549 9.0672 62 45 38
-1.6556 8.0642 7.4039 71 53 41
-1.2269 6.5098 8.858 56 44 48
-0.82336 7.81 7.8714 59 39 39
-0.072899 6.5273 9.2439 89 81 73
-2.3929 7.254 7.8153 40 27 18
-1.1004 7.246 8.2743 77 65 58
-2.6442 6.9778 7.9805 51 24 28
5.2317 3.7306 14.275 97 84 57
-1.5278 6.7935 8.5027 62 42 46
-2.0369 6.8342 8.2947 63 60 69
-8.1892 2.6694 9.7936 63 39 37
-1.2238 6.8466 8.5686 106 61 55
-2.2268 6.7002 8.342 64 44 43
3.2743 7.3577 9.6074 50 30 29
-3.8928 8.1214 7.4328 26 18 16
-1.0373 8.0856 7.5657 43 28 27
2.1287 15.401 8.348 6 6 2
-2.584 30.829 6.9672 164 146 102
6.8734 11.549 17.604 110 84 51
4.6545 6.5348 17.496 127 113 80
-1.4499 6.9745 8.3806 129 87 62
-4.5616 14.212 2.3019 33 24 22
-3.8381 5.1676 9.1176 48 29 28
-2.1003 7.923 7.3725 35 22 29
-4.3306 4.5684 13.083 26 22 18
-3.1997 6.9072 7.8769 95 66 58
-6.7919 16.565 6.7552 32 22 25
-3.491 -0.13731 16.917 97 98 92
-1.9818 8.1614 7.2189 34 22 24
-2.8046 6.8235 8.0718 125 111 100
-5.0547 6.0946 7.9165 28 18 17
-2.2665 6.9948 8.0977 40 39 45
-3.1098 8.7133 6.4006 96 93 87
-3.122 8.7482 6.3683 52 36 36
-1.0895 7.6538 7.9238 79 63 63
2.2515 8.4653 8.2633 70 61 56
-1.1454 8.1424 7.4691 126 121 115
-2.1438 7.9392 7.3619 44 38 42
-2.9516 6.0531 8.6425 54 47 48
-1.6787 7.9992 7.447 79 59 50
-3.3076 10.038 6.1847 58 48 56
4.5912 6.4564 10.824 55 47 42
4.2228 6.3052 10.846 66 50 35
-1.0961 7.3181 8.2146 79 65 57
4.6789 9.1523 8.571 37 24 18
-2.0158 9.4211 6.0721 93 83 81
7.2797 13.536 6.0169 55 41 30
-2.3694 6.9131 8.1155 43 23 23
-0.62348 8.4118 7.3802 70 54 49
2.5466 14.679 8.38 148 138 116
-3.7354 7.97 7.6774 27 18 19
-0.89395 5.4792 9.8534 66 56 55
-2.984 7.5829 7.3533 40 21 23
7.4534 15.238 13.316 184 165 107
-3.581 1.9292 19.023 72 31 32
-4.7893 8.5037 14.06 42 31 27
-5.5417 11.812 3.0509 47 30 26
-2.2145 8.6136 6.7402 84 80 75
-1.5229 8.5957 6.9593 130 116 97
-3.5564 0.90987 18.001 77 32 34
-2.3856 7.6003 7.555 135 130 118
-3.5179 6.24 8.3114 62 51 59
-2.3064 7.0488 8.0228 24 9 6
-2.7227 6.6074 8.2872 133 113 106
-1.7811 7.9807 7.4239 90 76 63
-3.8221 8.9275 5.9762 83 71 57
-1.4834 8.2887 7.247 75 72 65
-0.12258 8.7135 7.2855 94 78 78
-0.51418 0.68169 15.544 81 66 67
-0.60624 8.0345 7.7437 97 70 49
9.557 11.607 11.904 107 93 58
-1.979 8.3729 7.0127 66 56 54
-2.1118 7.8508 7.4302 92 78 66
-4.0253 7.3335 8.5493 30 24 20
-17.565 8.8002 5.0949 79 70 73
-0.92468 6.5945 8.8959 77 68 62
-1.1961 7.019 8.4395 76 36 39
-2.8763 14.947 1.7818 38 27 21
-2.9092 5.8785 8.8217 72 54 54
-1.6972 7.9873 7.4469 78 73 67
-0.97054 7.5562 8.0494 87 76 74
-1.9871 8.7104 6.7312 64 45 40
-1.9614 6.8467 8.3106 45 32 34
-2.4859 7.462 7.6351 80 51 53
-1.9749 6.5908 8.5239 87 77 66
-2.2284 7.9182 7.3381 122 102 94
-1.5666 6.6233 8.6401 76 67 64
-0.082008 11.363 5.0462 95 80 73
-2.7165 8.3077 6.8663 32 16 15
-4.4401 4.9167 10.084 41 37 64
-0.67346 7.5392 8.1452 57 42 34
0.069087 17.887 7.0813 139 133 97
-1.9699 6.7038 8.4338 130 125 131
-0.44299 6.6867 8.9742 60 48 46
3.4061 12.426 7.68 36 27 27
2.5122 5.9992 10.537 97 75 62
-1.1864 8.458 7.1743 69 49 50
-0.64899 8.461 7.3315 84 74 55
-1.2326 7.1057 8.3571 58 42 42
1.647 2.304 15.562 76 27 30
-11.487 33.601 5.6852 135 128 118
-17.722 10.73 6.0226 37 21 21
-5.1725 4.5659 9.123 58 48 51
-3.1413 9.1249 6.0186 89 69 68
-13.034 4.677 7.6682 36 29 19
8.2288 13.15 9.5506 119 100 67
-2.1534 8.1838 7.1107 66 60 64
-0.56147 2.1937 17.078 109 109 101
-2.3284 7.4813 7.6684 62 57 51
-0.8717 7.2412 8.3421 68 66 67
1.5717 14.844 4.1332 72 67 45
-1.0754 7.4422 8.0972 105 98 89
9.7847 10.763 10.097 82 65 37
-3.0174 6.0106 9.1584 26 21 18
-1.2247 32.629 7.6743 159 159 161
-8.7641 -1.5239 15.37 76 76 76
-4.135 7.0468 8.117 26 20 20
-1.9837 6.4303 8.6631 91 80 78
-0.27076 17.896 4.695 38 24 13
0.47717 17.54 8.3841 142 138 97
-15.809 6.7836 7.0675 70 33 40
-1.3076 8.1262 7.44 12 0 0
-0.57672 6.8901 8.7704 55 41 40
5.2706 4.8478 15.364 114 102 80
-1.0742 7.7024 7.886 70 49 44
-1.286 10.316 5.5348 36 32 33
-3.0942 7.0125 7.8083 69 45 43
-1.0723 6.7674 8.702 79 59 63
-2.366 8.1907 7.0611 49 32 23
2.4526 12.653 4.7497 68 43 38
-2.7784 7.4539 7.5346 66 58 55
-1.7978 5.3354 9.6802 57 42 45
-2.5429 5.2184 9.7756 24 18 17
-5.8437 9.3237 5.6822 29 19 20
-2.8237 7.757 7.3002 77 60 65
-1.5446 6.8877 8.4202 81 59 52
-7.9872 7.9028 12.447 35 33 12
-3.6568 7.0448 7.5922 47 37 35
-2.6602 7.4425 7.597 125 116 107
-8.3843 15.483 6.2603 96 67 32
-1.8223 8.1687 7.231 95 66 59
-2.6051 19.01 5.2816 46 21 21
-0.28405 7.0447 8.7274 64 34 25
-2.3034 1.3593 17.535 105 102 93
-1.8249 4.4853 10.387 61 49 49
10.557 14.866 16.034 56 36 34
-2.7957 8.2275 6.9025 112 103 94
-2.5408 6.6231 8.3215 69 55 60
-10.336 14.559 6.816 87 59 37
-2.6993 6.8819 8.0505 85 80 86
4.7144 15.464 9.6804 98 89 58
-3.5618 7.4514 7.2924 84 79 76
-3.8525 7.3785 7.6833 26 19 15
-1.8573 5.6888 9.3449 74 70 67
-6.8434 7.0808 6.5185 88 73 70
-1.175 0.40233 15.76 82 81 76
-12.248 33.408 6.1376 210 221 227
-1.5543 29.608 5.0727 158 138 95
-0.83032 7.2117 8.3903 39 24 23
-3.0822 1.5648 18.296 112 106 91
0.25817 7.8137 8.1989 100 90 88
-2.8562 7.5749 7.4196 97 74 68
-5.5219 5.0489 8.6752 65 50 53
-0.24912 7.9935 7.8794 122 113 108
-16.918 7.9383 5.3896 93 90 85
-1.7491 8.0398 7.381 122 118 103
-2.1994 8.4603 6.8813 90 79 78
-4.2697 1.8597 19.482 58 40 32
-1.5391 0.32044 15.954 99 96 91
-1.0983 7.1364 8.37 57 33 29
-4.5052 5.3255 12.297 24 18 18
-4.3113 5.949 8.2828 80 69 63
-1.7178 5.0621 9.9366 41 36 32
-2.3299 7.8491 7.352 36 21 24
-3.137 7.0198 7.7834 73 57 57
-1.1855 8.9455 6.752 48 33 36
2.4847 2.1923 14.855 60 26 23
-2.3047 6.705 8.3197 113 102 104
1.9747 8.7573 7.886 35 21 20
2.4791 10.744 6.3281 80 71 62
-1.0578 0.84257 14.05 46 31 34
-1.6832 8.3452 7.1249 76 58 46
-1.7613 8.0532 7.3627 64 48 48
0.11854 5.3869 10.287 48 37 43
-1.016 7.0402 8.4771 41 27 24
0.21516 7.1789 8.7788 73 54 48
-0.86404 8.171 7.5354 69 66 71
-0.87936 8.9469 6.8504 82 72 70
-1.6343 9.3743 6.2312 70 60 58
4.5723 5.9093 16.941 122 115 86
-11.959 3.9819 8.8886 35 29 17
-0.41338 6.92 8.7862 91 67 58
-3.741 6.4313 8.0834 90 79 82
-3.7424 17.198 4.434 89 36 34
-14.533 5.7553 9.7193 112 112 112
-3.2763 -1.4696 15.432 77 69 64
-2.0756 4.2477 10.512 65 60 62
-5.1896 5.8214 11.913 24 19 16
-1.2596 5.8379 9.4121 84 70 70
-2.0127 7.9761 7.3505 82 43 26
-2.664 8.596 6.6376 45 35 36
9.2495 11.778 11.228 118 98 64
-2.1822 5.5525 9.3545 73 73 75
7.8978 14.284 12.167 170 147 94
-2.9023 6.452 8.3442 61 45 48
-4.7678 7.9388 6.5068 68 49 53
-9.0658 12.684 4.089 25 19 19
2.4112 9.397 7.4559 82 68 58
-0.93045 7.9286 7.7388 111 100 82
10.76 9.3274 10.875 32 22 21
-0.33605 18.452 7.9689 138 134 96
-2.5715 9.9995 5.9084 33 23 24
-2.9437 6.3444 9.449 28 19 18
-3.5996 8.5609 6.3539 50 41 32
-4.9359 15.861 4.1139 95 73 59
-4.858 8.4002 6.0954 62 53 49
-3.6084 6.7035 7.8958 52 36 36
-1.0278 8.2945 7.3735 111 106 100
-12.958 11.143 5.4662 107 85 68
-2.8606 6.3305 8.4446 113 101 105
5.1094 4.1483 14.79 104 102 72
-1.1448 6.3055 9.0697 102 94 76
-3.356 7.8368 7.1057 37 26 29
-1.8928 8.6746 6.7881 86 68 71
-3.4046 -0.0081528 16.983 116 115 111
0.58692 9.1643 7.1076 96 90 90
-0.6895 8.8864 6.9693 48 34 23
-0.89962 7.2767 8.3122 63 53 43
-7.3384 8.731 13.909 38 32 18
1.5724 15.99 9.1929 133 128 90
-1.0877 7.254 8.2643 67 63 53
-0.24704 8.3036 7.5834 77 50 49
0.82006 16.211 4.9442 35 26 21
8.5447 13.375 12.501 154 138 89
6.1731 6.0509 15.877 120 109 81
-3.7696 7.6698 7.0601 60 48 48
-1.0772 7.4071 8.1502 145 131 118
-3.5 9.8751 6.2532 36 27 27
2.4611 6.4671 10.114 88 63 59
3.5437 2.5148 14.361 88 73 47
7.9717 14.266 12.549 176 159 101
-2.7827 6.7244 8.1407 67 48 44
0.11226 8.5779 7.4591 69 52 45
2.4163 14.988 8.5611 129 132 116
0.23854 9.5164 6.7165 153 148 129
-3.7581 7.2774 8.112 31 21 19
-1.0144 6.9996 8.5175 66 35 33
-0.93443 7.1904 8.3833 117 117 111
-1.0384 7.5475 8.031 47 35 29
-0.63899 8.3674 7.416 115 104 102
-1.3118 16.58 2.1377 31 20 19
-2.711 6.8647 8.051 121 116 122
-1.789 7.9728 7.4279 63 50 52
-2.6318 5.5688 9.1917 50 35 40
8.3312 8.6023 15.12 120 108 74
-1.6269 8.1366 7.3367 58 45 37
1.0606 1.9543 15.66 103 99 87
-0.45931 8.1717 7.646 46 23 17
0.084339 6.0445 9.6971 83 59 55
6.4463 16.617 12.424 172 155 96
-2.1374 3.1318 11.405 46 43 24
-2.3871 7.7775 7.3952 91 63 59
-1.5435 8.2379 7.2847 76 67 60
-2.0445 6.9323 8.2121 42 33 38
-1.118 5.0508 10.161 64 45 46
0.90445 16.995 9.4621 130 121 80
-2.4738 10.882 6.1477 40 29 28
-1.5742 6.8504 8.4365 75 62 60
-3.7292 9.0345 8.3947 90 84 95
-12.827 12.564 6.7108 106 85 58
-2.3155 7.8196 7.3806 40 33 27
-0.34949 7.8648 7.9598 12 2 1
-2.1265 6.7564 8.3479 73 67 69
-1.923 6.6054 8.5603 94 94 86
-1.7875 2.9771 18.748 105 100 85
-1.7843 8.51 6.9356 68 50 48
-1.9065 8.2466 7.1325 89 61 52
3.3501 5.6628 17.598 132 115 85
-3.6361 6.7375 7.8465 90 83 75
-4.6977 5.6773 13.226 26 20 17
-9.0265 15.071 6.3341 103 70 42
-2.5585 10.108 5.3548 36 25 26
-2.1539 17.645 3.7788 92 72 41
-2.5297 7.5879 7.5143 57 45 45
0.62389 4.2104 11.451 72 59 48
-2.8155 5.5933 10.223 43 32 24
0.11537 5.9604 9.7869 70 61 52
1.1926 7.0774 9.1711 46 36 37
-2.8929 0.34961 16.957 94 91 86
-0.68305 16.422 1.5775 27 18 19
-7.8834 -2.9442 15.268 44 24 25
9.198 5.5931 13.186 30 22 19
-16.97 8.4529 3.3182 45 21 23
-1.8155 8.7699 6.7172 83 74 76
12.054 14.385 29.527 210 185 128
-17.512 30.001 6.7121 59 63 63
-0.79897 8.0099 7.6977 106 102 101
2.9071 13.873 4.9433 38 30 16
1.2536 9.0641 7.4028 67 53 45
-1.8105 6.7461 8.4572 131 122 127
-2.9458 7.435 7.516 66 56 57
-5.458 5.4439 15.043 27 20 17
0.20197 3.8246 18.099 117 114 104
-2.8742 6.9353 7.9362 55 45 44
-0.86669 7.4206 8.2045 124 121 106
-7.1551 10.11 3.8681 65 46 48
-5.7669 0.80501 19.501 92 86 71
10.152 8.9619 25.684 205 174 110
-1.4677 13.799 2.779 34 24 21
-0.92488 7.7429 7.9005 82 71 54
-2.7634 6.0565 8.7108 76 57 51
-0.10879 5.622 9.9834 64 59 63
-0.45242 7.8338 7.962 75 41 31
-2.8201 7.891 7.178 91 89 90
1.1561 16.648 9.2125 144 141 98
6.6404 15.59 9.152 117 101 67
-3.454 8.4486 7.7739 38 26 23
1.946 3.2904 16.295 108 106 102
4.7072 8.5578 9.0019 86 69 62
-1.7073 8.5241 6.9512 38 23 26
-2.2023 7.8314 7.422 86 83 84
-0.72546 7.7915 7.9082 74 63 54
-6.7139 9.5094 4.5076 64 53 49
-1.8017 6.8561 8.3596 80 68 70
-5.9903 5.4421 8.1784 58 43 42
-17.472 29.382 5.7007 155 161 155
-1.6766 11.633 4.3175 71 61 52
-2.7575 5.6118 9.0934 43 32 38
-1.5874 6.4884 8.7477 62 51 55
1.4294 3.0428 12.722 70 58 62
-5.5629 5.2548 8.4876 118 99 101
0.48246 7.7106 8.36 105 87 83
-0.30975 6.8641 8.8611 30 16 14
-1.733 10.012 5.6739 66 58 47
-1.1212 10.056 5.8091 77 66 64
-2.1278 7.879 7.3916 39 35 29
-0.21337 6.972 8.8164 56 40 40
-3.9236 2.2662 19.681 30 20 21
-3.7628 5.9079 8.5109 105 85 86
-3.7869 6.466 8.0326 57 50 51
-5.8535 9.4666 5.7405 31 21 20
8.6563 7.071 15.043 78 58 33
-16.49 7.7153 6.9505 108 110 106
-4.3431 5.9389 12.932 25 21 18
-3.9717 5.8385 8.4914 63 48 53
-1.876 2.3467 18.192 111 108 92
-2.0042 6.9356 8.2399 73 63 62
-11.828 32.233 4.2362 98 101 102
1.7389 11.682 5.2711 54 44 34
-17.674 27.901 4.4329 161 135 87
-10.687 12.233 4.8523 105 77 56
-13.861 12.487 7.4655 73 40 24
-0.48218 7.6585 8.1117 73 63 61
-8.589 12.183 3.2774 42 38 34
-1.9822 8.0432 7.309 75 71 70
-2.1398 8.5835 6.7988 40 30 14
8.5006 9.7468 27.584 208 180 115
-1.2118 7.1361 8.3144 57 45 47
8.4245 13.182 10.962 138 119 79
-0.061385 6.3969 9.3543 107 97 85
2.7703 3.8603 16.24 117 108 92
12.51 13.704 28.553 208 178 118
0.72585 16.354 4.9085 35 26 19
3.4359 10.619 6.7704 63 43 42
-4.7647 15.564 3.7234 98 77 60
-2.3329 6.9539 8.0912 111 106 110
-2.2581 7.7425 7.4671 63 43 44
5.5918 6.1627 11.424 74 56 52
-0.62266 7.8213 7.9219 69 69 57
-2.1382 6.8459 8.2581 112 108 107
10.294 8.9671 11.104 43 24 20
1.3688 6.0752 10.089 88 77 71
6.8856 8.2744 17.561 130 111 71
-1.328 10.023 5.7663 87 70 62
-6.0726 17.05 6.0632 87 60 37
-2.6018 7.2396 7.7866 85 75 73
1.1586 6.775 9.4376 84 84 74
-1.6462 8.1112 7.3669 70 61 63
2.5443 14.371 10.074 125 124 122
7.2423 6.939 15.979 118 106 80
-3.1963 7.1835 7.6299 33 14 18
4.8257 5.5223 16.368 105 92 73
-3.022 7.2957 7.6004 64 51 49
0.31747 14.032 3.1628 59 45 36
0.70552 3.6371 11.966 54 45 35
-6.2417 7.4776 11.857 37 38 7
-2.1157 8.0124 7.2805 108 92 92
-3.0603 8.9171 6.2366 50 45 51
-0.66991 6.4519 9.0948 73 58 57
4.4158 3.8898 15.063 87 84 53
-3.7814 5.6832 8.6999 60 38 41
-1.9538 8.4661 6.9443 46 17 15
-2.0013 10.132 5.5011 88 68 70
-10.229 33.696 4.6997 127 121 99
-2.7266 7.8948 7.2042 71 56 48
-1.5469 6.7624 8.5192 45 32 31
-2.109 7.8239 7.4458 61 51 46
-6.029 3.3235 13.076 25 20 17
-2.7663 7.2869 7.6973 106 89 85
1.1288 4.9371 10.995 80 58 47
2.396 13.645 4.6011 54 41 38
-1.9639 6.5972 8.5248 88 79 74
-2.9493 8.0579 7.01 92 88 87
-1.3253 9.2267 6.4759 74 60 59
-0.81846 7.7561 7.9125 135 130 126
8.1392 7.0238 15.394 103 94 61
-0.8738 6.3206 9.142 32 18 15
-10.393 12.331 4.7621 44 33 40
4.9081 3.2302 13.999 31 23 21
-14.182 5.3096 9.9108 105 105 105
-3.0228 8.0936 6.9414 67 48 44
-0.93271 7.6714 7.956 87 88 71
-2.6232 7.3753 7.6696 65 52 56
-0.48129 8.0254 7.7566 49 30 29
-2.3314 7.668 7.4919 24 14 23
-3.5073 6.3125 8.2572 60 50 58
-3.7867 6.3526 8.1286 88 83 80
0.44092 5.0167 19.142 33 23 24
1.4656 9.0247 7.5001 119 104 97
-11.441 1.4847 10.869 43 22 20
-2.8222 8.0499 7.0439 57 43 34
-0.32353 12.564 3.9824 64 54 44
4.5983 3.3919 14.422 83 70 57
-2.36 6.884 8.1478 24 13 11
-2.3968 5.2967 9.4967 53 42 46
-2.066 7.9751 7.3406 85 67 63
1.2408 6.4314 9.7497 54 46 43
-1.9121 6.0009 9.0496 60 58 46
-4.7376 8.1476 13.377 46 43 12
9.3782 6.6915 14.003 71 54 29
-2.3758 5.6688 9.1928 70 57 53
-1.1944 6.8249 8.5858 60 48 52
-3.0731 5.3306 9.2426 45 30 30
-2.4719 7.4576 7.6416 104 92 76
-5.7816 5.5981 8.105 56 53 56
-19.323 28.872 6.8533 162 172 164
-1.4362 6.377 8.9056 87 72 74
-0.56774 7.4834 8.2387 66 41 40
-0.65448 33.797 8.3601 158 163 162
-1.4231 9.6264 6.0856 62 42 41
-6.8524 3.3946 9.6279 44 33 29
-4.9478 5.2922 8.6539 53 39 39
-1.5351 5.973 9.2244 43 25 25
-0.79 7.9935 7.7019 47 29 30
-4.1015 7.4688 7.0869 51 31 32
7.6749 5.0831 13.817 78 62 42
-17.548 8.7929 5.1551 77 69 67
-3.3305 9.8708 5.3508 41 23 19
2.1958 13.234 4.2418 75 52 40
-0.61358 34.109 8.7083 150 151 149
1.1321 12.799 4.2399 64 47 40
1.4496 5.0375 11.009 75 58 50
-2.6361 7.6257 7.4439 118 108 100
-0.92202 8.4285 7.288 105 102 85
-1.2474 6.7342 8.6532 42 24 24
7.3525 5.7312 14.708 86 71 46
-6.0801 5.3896 8.2094 44 33 33
8.2056 13.165 9.0339 65 30 26
-4.4243 7.3597 7.0937 40 26 25
-4.2937 9.6389 6.604 33 24 22
-4.5275 6.9375 12.402 26 19 20
-0.61354 9.0946 6.8079 54 39 34
8.3367 7.6373 15.884 70 45 41
-2.6442 5.5873 10.007 56 45 59
-4.0601 6.4315 7.9598 58 44 44
-2.8228 7.611 7.4154 103 89 88
-1.315 8.1578 7.3961 64 54 44
-2.8783 6.7977 8.049 68 48 50
-1.3454 6.6179 8.7201 68 54 53
-0.51339 7.2937 8.4183 38 22 25
-13.873 5.1649 10.958 98 97 93
2.3484 8.4946 8.2765 89 71 67
-5.0041 6.5939 12.168 25 19 19
-2.4488 7.1684 7.8789 36 21 21
-1.1543 6.3585 9.016 82 60 58
-1.1759 6.5764 8.8196 142 136 124
0.65548 16.323 4.2905 55 36 26
-1.1301 7.3151 8.2002 65 54 46
-3.9949 7.3379 7.7718 40 31 32
-3.6336 9.4413 6.3338 37 27 26
1.3656 8.612 7.8337 92 79 73
7.756 13.839 9.2406 115 100 63
6.4726 16.981 4.8359 32 23 18
-2.7631 9.4466 5.8403 64 48 48
2.3781 10.465 11.732 54 55 15
-2.8499 5.1539 9.4771 41 31 32
-2.6802 8.2857 6.8957 90 80 71
-4.0349 6.3275 11.921 31 28 23
-1.8179 5.4744 9.557 63 64 68
-4.0815 6.3347 8.0283 58 46 47
-3.7586 8.1646 7.5969 27 17 16
-1.0623 9.4353 6.371 117 102 92
-1.2435 6.5338 8.8343 113 108 105
-1.9033 8.4376 6.9837 64 43 41
-2.7772 6.8924 8.0119 84 63 63
-8.4141 7.023 11.965 38 31 16
-5.8844 30.032 6.2027 72 44 30
-1.7318 17.691 3.5405 37 29 27
-1.0108 8.3484 7.343 53 44 43
-2.0985 7.9203 7.3743 48 32 42
-1.8135 5.5406 9.4962 120 122 111
4.7337 8.7554 12.09 67 49 29
0.048589 14.79 3.7171 34 27 18
-0.49959 6.6596 8.9919 24 9 4
-11.749 1.4635 9.6041 29 24 22
-2.4949 6.8138 8.1817 96 94 82
-2.5836 0.41584 16.792 112 107 104
-2.3528 7.4737 7.6578 58 41 47
-4.2304 5.9037 11.628 25 20 17
-10.295 32.5 3.6026 148 106 57
2.0076 14.272 4.6638 75 68 42
-2.2163 6.696 8.3571 59 49 48
-2.4125 6.7378 8.2605 60 43 34
-0.45711 6.5073 9.1225 57 39 40
-0.9482 8.0036 7.6632 148 147 145
-9.3304 -1.1563 13.384 46 24 18
-1.3725 7.9059 7.612 122 95 84
-3.1647 6.8088 13.812 30 25 20
7.1576 14.518 8.0696 90 73 47
-1.7762 6.6461 8.5435 38 27 25
-0.13042 8.3372 7.5964 98 90 77
-1.9778 7.9678 7.3669 36 22 22
-8.1044 3.8365 8.8143 63 52 50
-1.1596 7.2266 8.2566 63 47 39
7.5422 15.183 13.736 191 172 116
1.0029 15.621 3.6175 56 44 29
0.71831 4.2507 18.144 120 115 103
-0.76757 8.1073 7.6109 79 65 64
-1.9515 6.8398 8.3243 57 40 40
-1.8294 7.9617 7.441 77 67 58
1.1355 5.4339 19.049 32 23 23
-2.3515 7.8192 7.3695 62 57 54
-3.5559 6.9635 7.69 47 28 34
0.18508 7.886 8.1038 104 95 98
-1.5202 6.6883 8.5989 55 37 36
0.59468 3.2991 17.324 111 105 94
-11.558 1.5189 10.219 39 19 23
-3.0365 9.6969 5.5403 52 37 40
-2.1349 1.6446 17.697 106 106 100
-0.61188 8.0653 7.6955 48 33 26
-0.35158 7.8316 7.9829 68 66 53
-0.61455 7.0326 8.6365 72 60 52
-1.9458 1.125 17.044 107 100 98
-3.7663 9.1576 8.4962 62 48 55
-0.62 7.9919 7.772 109 101 88
-3.6941 16.867 4.149 92 66 31
-5.0825 15.314 3.7124 92 73 56
1.5602 9.6118 7.0345 21 11 1
-2.0589 8.4807 6.9075 94 98 83
-16.206 30.632 6.0815 148 148 148
-3.9415 -1.4219 15.977 80 77 70
-1.9693 8.3348 7.0587 92 63 65
-0.43791 7.5923 8.1877 101 82 75
-2.1722 7.9436 7.3349 83 78 73
0.92698 7.3572 8.8302 42 31 37
-1.5709 6.7471 8.5197 84 75 73
7.5912 14.337 10.234 130 111 71
-1.9875 7.8741 7.4366 53 41 41
3.4273 5.9117 10.931 94 82 75
-17.164 28.603 4.7346 156 156 157
-4.1741 7.199 7.8162 48 36 39
8.1156 9.0361 15.244 65 31 26
-2.5838 7.2817 7.7543 87 68 62
-1.5698 7.9975 7.4679 89 82 64
-0.26643 17.692 3.8312 31 21 20
-0.28009 7.1182 8.6527 59 45 27
-4.1886 6.2294 8.1021 86 73 60
-3.0486 5.4737 9.12 56 41 38
-2.155 5.0509 9.8053 62 53 56
-1.1101 7.1974 8.3075 126 125 114
-1.7162 8.1724 7.3002 169 164 160
3.5969 2.975 14.796 58 25 16
-0.70053 2.1958 17.18 114 111 100
-0.96024 7.6187 7.9834 80 72 59
8.1607 7.3915 15.733 95 76 48
-8.6148 10.977 2.935 43 33 29
7.2367 8.7689 17.847 67 46 36
-3.9568 5.9569 14.134 31 21 20
7.0409 7.3772 26.363 202 172 108
3.1384 4.0114 16.123 118 111 86
-3.8898 10.546 4.7639 31 21 21
8.4834 12.709 9.4066 103 83 48
-1.323 7.974 7.5605 120 102 90
6.3322 16.2 9.7948 122 108 64
-3.7339 8.8285 8.2582 50 36 44
-0.65523 7.4228 8.2528 55 35 36
-2.7197 7.5871 7.4708 116 94 83
0.39745 13.987 3.4516 60 41 32
-8.5398 11.645 3.2533 29 22 22
3.471 6.5704 18.358 64 29 25
-2.8729 6.2977 9.4735 25 19 17
-0.79085 7.121 8.4782 44 32 31
-2.4643 7.9727 7.2311 70 60 61
2.2344 4.6001 17.362 122 115 94
-1.3993 8.1396 7.3875 31 16 17
-1.7953 6.7734 8.4234 32 15 13
-4.1314 8.129 7.5043 57 46 50
-0.46207 6.9421 8.7587 42 29 23
-2.0432 6.8557 8.27 48 34 40
-2.1949 6.811 8.2544 102 88 85
-2.9171 7.3672 7.5628 78 67 62
-1.3961 8.079 7.4521 101 101 100
-3.0224 7.1678 7.6997 139 122 115
-3.2909 5.9447 8.6423 83 64 68
-0.8452 9.6685 6.2238 85 67 59
-2.3553 7.1742 7.9139 71 57 52
-0.26304 8.1701 7.7148 56 45 43
-1.0889 7.5942 7.9778 72 55 47
-0.11466 8.4471 7.4857 68 58 50
-1.2071 8.5303 7.1087 118 98 71
1.4211 6.1283 10.059 73 62 60
3.0438 2.8408 15.042 100 92 68
-2.911 6.4676 8.3275 65 59 55
-15.949 7.4364 8.5675 104 104 103
1.3075 4.9085 18.345 111 104 88
-4.8002 5.5529 8.4633 85 75 76
-2.4579 7.9253 7.2464 113 96 88
-1.6616 8.487 7.0278 71 68 61
0.31193 17.616 7.5842 141 132 93
-5.2179 9.3208 5.1931 64 50 49
-3.3857 8.135 6.804 104 89 82
-0.47695 20.478 4.6614 42 32 18
3.8409 2.6565 14.275 91 75 49
-1.3151 5.6565 9.5654 99 79 79
-0.90439 7.102 8.4687 90 70 60
-0.30523 6.9415 8.8059 32 26 22
-3.5581 8.6947 7.929 44 30 33
-1.4355 6.534 8.7564 67 58 59
-1.4511 6.9731 8.3805 119 78 56
-0.026001 7.7311 8.1825 103 87 77
-2.6857 7.52 7.529 80 67 59
-2.0363 8.5359 6.8738 66 56 52
-2.5818 5.6013 9.9617 57 51 55
6.038 6.4287 16.351 112 96 80
12.233 11.619 26.749 204 171 106
-1.6713 6.8947 8.3689 78 55 51
-2.3011 7.5368 7.627 84 59 53
9.3302 10.697 27.917 206 174 113
-2.8006 0.60169 17.14 104 100 92
-5.0295 5.5351 12.059 26 18 16
-2.1601 6.5721 8.482 88 82 82
-0.44473 9.0939 6.863 65 54 48
-1.7818 8.4066 7.0483 30 13 6
-5.3752 31.133 9.324 148 147 147
9.3057 11.194 28.419 204 174 112
3.3908 6.617 10.284 46 38 35
-2.9092 1.862 18.456 115 115 107
-3.3126 7.0976 7.6717 53 40 44
6.2384 8.4001 9.8632 47 31 17
-2.1147 6.1748 8.8385 69 54 48
-0.70133 19.068 6.8668 134 130 85
-17.522 8.9527 5.9374 89 88 83
-3.983 6.6657 7.824 28 19 20
-4.9506 15.712 4.0024 83 58 51
-1.2727 8.6014 7.0358 103 101 87
-1.4984 5.1452 9.9692 64 59 37
-3.5023 5.5827 8.8678 32 23 26
8.7356 12.733 11.127 133 113 76
0.88256 7.1004 9.054 100 87 81
1.1959 8.6257 7.7675 114 89 87
-3.8533 7.0446 7.5327 49 33 33
-2.6897 7.623 7.4224 73 66 59
-4.5983 17.904 5.796 97 74 50
-9.1149 12.664 4.0926 24 18 18
-0.06042 1.9132 13.222 60 50 48
0.03079 8.5876 7.448 30 22 17
5.8485 4.5381 14.618 65 22 18
-1.168 8.2771 7.3615 67 57 55
-2.5901 7.8708 7.2569 105 83 72
-3.9849 7.7532 6.9114 54 45 46
-9.7867 14.348 6.1915 120 102 73
-3.9604 10.098 5.4418 39 28 31
-2.932 6.6294 8.1899 123 116 110
1.1218 16.777 9.5469 145 139 96
-0.72565 9.4864 6.4306 69 54 49
-1.729 6.8418 8.4052 74 58 60
4.0342 4.2687 15.709 129 113 90
0.76028 17.059 8.2481 136 130 90
-17 9.5378 4.3642 41 22 24
-1.8123 8.6725 6.799 82 59 42
-6.3909 5.2323 10.622 38 30 19
-2.3541 7.6431 7.5043 46 28 22
1.605 9.0347 7.5361 114 94 83
-1.5557 5.1349 9.942 95 90 87
-0.96231 8.2363 7.4451 64 49 46
-3.2196 6.6654 8.0571 76 59 50
-0.99013 8.2842 7.3808 62 48 47
-3.9167 7.7298 6.943 49 36 43
6.9705 14.922 8.5644 101 86 55
7.5016 13.876 7.5778 79 64 31
-14.708 5.2725 7.3021 49 32 29
-5.7836 6.9726 12.175 28 19 17
0.29779 9.32 6.9069 70 62 56
-0.44707 7.8735 7.9193 98 77 74
9.6508 9.0803 10.424 55 37 33
9.0696 13.159 15.316 165 144 84
6.9011 6.0754 15.383 108 95 75
-6.8407 -2.1381 17.398 83 73 71
-0.20584 7.2214 8.5934 115 103 101
-16.063 7.1874 7.2266 114 114 112
6.8601 8.5431 27.597 209 179 115
-1.4808 10.434 5.3803 103 85 85
-7.8037 5.0424 11.102 28 20 17
-2.5301 6.8944 8.0815 55 51 48
7.4304 14.166 8.4625 91 78 44
-0.58065 6.0635 9.473 73 64 65
2.0679 15.499 8.3252 128 130 114
0.79212 16.902 9.7542 108 101 72
-2.6291 6.283 8.5349 62 53 46
-0.30769 7.0139 8.7533 97 78 66
0.56381 8.8116 7.4131 29 20 11
-2.2936 6.3388 8.6284 54 39 44
-1.7635 8.1 7.3311 73 68 72
8.523 13.422 13.319 156 139 87
7.3859 8.8892 17.855 69 44 33
3.1798 2.9383 15.039 109 98 74
-2.4819 6.3586 8.5652 62 50 50
-11.951 2.3391 10.748 42 23 23
-8.4262 30.781 4.6654 123 85 38
-10.536 13.61 5.7867 61 51 57
-2.0184 2.2582 18.206 110 104 91
-1.0042 12.578 3.7745 100 89 83
-3.3714 6.7251 7.9684 82 61 65
-4.7202 5.5065 8.5422 80 72 70
-1.8737 6.7165 8.4477 41 36 34
-9.1305 13.073 4.5323 27 16 20
-3.245 0.46337 13.243 70 59 63
-1.025 7.8277 7.7827 136 119 109
-4.7459 4.7589 12.518 24 18 18
-6.3525 12.963 6.0957 32 24 14
-2.0564 4.7074 10.12 49 37 41
-1.3369 7.0417 8.3541 78 62 62
-2.6716 6.517 8.357 81 70 75
-0.27816 8.5618 7.3612 49 39 40
-2.5466 7.6977 7.4209 77 67 66
-0.20676 6.6913 9.0606 34 28 12
-3.1661 10.557 5.7803 59 47 50
-3.7586 8.4291 6.4155 93 75 75
-2.3483 7.5644 7.6024 110 101 89
-1.5912 8.5192 7.0117 80 74 74
-4.459 7.3397 7.1044 41 29 29
-0.97487 15.341 2.1314 36 26 21
-17.139 9.4089 4.3371 49 24 20
-0.96587 8.1497 7.5184 17 5 2
-0.77524 7.4023 8.2393 65 49 50
-1.1829 7.9305 7.6522 121 120 119
-0.89632 6.6019 8.9009 84 79 79
-1.6394 6.5282 8.6889 28 14 11
7.9218 9.2221 13.008 85 73 51
-3.0095 6.7238 8.0693 81 57 54
-2.5573 6.8804 8.0831 48 43 40
-1.9306 7.9084 7.4363 22 6 6
-4.1023 8.1809 14.838 42 45 28
-14.467 10.981 6.3939 125 107 91
-3.4051 8.8178 6.201 76 69 63
6.9969 10.13 29.016 206 181 117
-3.0126 7.6691 7.2977 109 85 85
-0.76725 19.011 6.1332 123 112 79
0.021181 14.74 4.938 33 25 22
-2.163 8.3195 7.0077 53 44 45
-4.1411 -1.5384 16.005 93 90 85
-17.407 8.9209 4.0536 43 23 24
2.2834 10.155 11.471 43 37 13
-1.8729 9.5506 6.0033 68 54 51
-0.80909 8.2569 7.4705 60 40 39
-2.6934 19.219 5.653 86 56 26
-2.209 8.1192 7.1786 78 68 76
7.6233 17.494 4.4853 31 23 16
-9.827 13.158 5.1135 110 79 54
-3.1612 5.9634 14.574 33 25 22
-2.8104 7.7165 7.3241 99 91 95
-0.28206 6.6044 9.1172 60 46 46
1.3638 16.228 8.8001 133 129 84
-0.22684 9.2983 6.7574 96 79 69
2.7674 14.059 9.0769 87 77 46
-0.33713 6.6051 9.081 61 43 33
-0.64593 8.9799 6.9043 89 81 68
-2.2108 12.795 3.3141 61 47 38
-5.6767 15.318 4.14 102 80 67
-13.163 4.214 11.233 92 93 89
-4.4474 10.808 4.1578 60 45 42
-12.217 3.073 12.082 58 24 28
-0.45764 8.271 7.5732 88 70 48
2.2017 15.262 8.1954 119 122 112
-0.6674 2.8547 17.805 84 29 30
-2.9085 6.7921 8.0483 116 109 103
-10.621 6.3119 5.9688 120 114 111
3.136 13.363 8.5865 53 43 30
-1.9029 9.2737 6.2411 95 76 80
-4.4246 30.791 8.257 158 160 159
1.6391 8.1358 8.3542 94 82 82
-0.14575 8.1768 7.7341 76 67 62
-5.209 29.451 5.9485 86 80 54
-18.312 10.11 6.0574 50 31 25
1.2399 9.9422 6.6738 78 70 68
-3.0231 7.5149 7.4103 40 20 11
-6.1126 13.738 2.9285 46 23 22
1.1572 7.233 9.0197 102 87 80
-2.5086 7.0274 7.9786 69 60 57
2.5189 14.329 5.1841 56 39 26
-1.4358 6.932 8.4143 85 66 68
-1.6442 8.1567 7.3511 113 103 102
-2.4328 7.3586 7.7274 47 41 38
-1.6684 6.3772 8.817 71 56 52
0.5926 11.236 5.3481 102 92 82
-0.79993 10.277 5.7172 63 52 50
-6.631 12.515 5.7191 38 35 15
-1.9916 8.322 7.0649 88 65 64
0.099105 17.84 8.6962 128 119 88
-2.1997 6.9237 8.1685 60 49 57
8.1813 18.109 4.6685 30 20 19
2.4071 2.8829 13.253 68 58 55
-4.596 19.379 -0.74832 30 21 16
-1.2293 4.5106 10.587 66 57 53
-8.6189 13.584 4.6162 83 58 35
-1.5794 6.9182 8.3883 114 110 106
-0.17395 7.3141 8.5183 110 106 92
-14.178 5.6179 11.021 54 35 29
3.0049 8.1929 8.7976 81 73 60
-3.9525 6.8171 7.691 45 31 30
3.044 5.7191 10.963 48 26 13
11.718 10.815 26.36 200 167 99
-1.1992 6.3859 8.9774 71 55 62
-2.9474 5.3228 9.2869 49 33 33
-1.8629 6.3578 8.7558 42 26 26
-2.6534 8.7358 6.5081 93 72 67
-1.6205 17.278 3.276 28 20 18
-14.087 10.573 5.7398 103 84 62
-1.7755 8.0308 7.3764 71 44 43
-3.7643 7.3778 8.1083 31 22 23
8.4672 13.412 12.196 150 136 89
1.7298 5.4127 10.774 100 86 77
-4.3267 7.9362 7.5969 67 56 60
-1.3566 7.9771 7.5543 106 90 65
-12.561 7.654 4.2576 85 70 66
5.2943 12.841 5.4996 46 33 25
-0.77437 0.56621 15.62 85 78 73
0.98381 3.1461 16.876 120 112 109
-5.24 -1.8636 16.497 59 26 24
-1.2651 8.2774 7.322 88 78 76
-3.5251 8.6351 7.9439 78 74 82
-1.1028 7.2481 8.2593 50 42 38
-2.5848 9.5436 5.8197 58 54 55
-2.9585 4.9467 9.6135 34 24 25
1.2726 15.555 5.1931 78 77 49
-0.73635 5.7085 9.713 61 51 52
-2.1974 6.9822 8.1182 117 105 94
8.4424 13.47 12.265 154 140 88
-0.98726 0.927 13.904 39 33 37
-3.7744 9.1716 8.5588 81 77 76
-4.2457 5.9828 8.2804 71 62 63
-2.4437 7.6279 7.4953 102 89 87
-0.58378 7.0764 8.6008 105 99 84
-2.2846 7.9887 7.2489 76 67 60
-2.3355 7.1219 7.9671 92 75 64
-3.8687 7.3162 7.3362 28 19 17
-2.2104 8.3065 7.012 72 57 62
8.9292 12.527 12.208 136 117 72
1.9523 7.6262 8.9337 120 104 91
-6.11 12.806 5.4043 34 26 17
-2.7482 7.5326 7.4896 117 113 102
-1.0564 8.1391 7.5122 76 52 50
-13.691 4.6258 9.9862 93 98 92
-8.0509 5.874 7.4583 33 22 22
-0.47405 7.2027 8.5325 53 41 27
-2.1817 8.0497 7.243 88 75 67
-2.6941 7.1761 7.8047 45 30 27
8.4606 13.94 14.499 186 170 110
-3.0178 29.572 6.0954 162 140 95
1.5773 16.052 10.47 78 64 37
-6.7544 15.478 5.0846 96 70 49
0.5173 7.0906 8.935 73 63 56
-0.57164 7.5761 8.1632 69 55 52
-4.0792 -0.93404 16.565 101 97 90
8.6111 8.953 26.769 206 173 106
-1.6393 0.10941 15.817 81 76 73
1.5931 14.677 3.5199 69 54 40
-2.4539 7.2632 7.816 161 142 128
-2.4939 5.3753 9.3962 55 37 42
-3.8531 7.4158 7.2547 62 46 49
-2.4828 29.147 5.3109 164 141 100
0.36136 6.4059 9.4982 89 79 70
-3.5099 8.6756 7.8929 63 57 64
-1.0415 8.2425 7.4019 42 28 27
-0.92558 7.8338 7.8056 79 55 51
5.5117 17.634 11.421 41 27 19
-3.6033 6.6106 7.97 73 71 74
-2.2042 0.60101 16.698 67 28 31
-1.2952 7.8676 7.6766 77 66 62
-8.4088 -1.8003 16.511 80 71 72
-2.4849 8.5704 6.7055 73 56 61
-4.0937 17.831 4.723 83 68 42
2.2226 13.693 8.1962 44 33 27
-5.576 16.829 5.6886 43 33 28
2.5271 15.177 5.9406 46 32 21
-3.7915 5.2982 9.0217 38 29 26
-2.5506 8.7685 6.502 97 85 80
-0.43413 7.3167 8.4159 73 57 58
-3.984 6.6658 7.833 28 19 20
-0.65524 7.7231 8.0147 100 101 96
-8.8832 -1.4996 14.721 77 74 67
-2.2032 5.4245 9.4632 59 24 20
-1.6455 6.0696 9.099 106 98 95
3.0102 6.8179 9.9771 72 57 54
-2.4702 5.4871 9.311 55 41 43
-1.7945 6.6762 8.5216 78 69 70
1.0819 7.8052 8.4732 58 44 44
4.0602 14.836 7.6131 41 26 19
-2.5277 6.4511 8.4625 149 140 143
-7.258 6.396 7.2661 29 19 16
-2.3781 7.5871 7.553 80 74 70
-2.4458 7.4816 7.6238 49 49 47
-3.2071 5.8592 9.6869 44 34 42
-5.0642 6.3171 7.8434 25 19 19
-2.3364 8.1426 7.1134 90 76 70
-2.0512 6.7742 8.3335 23 10 9
-6.9446 13.343 3.2152 47 30 19
-3.0332 8.7374 6.3934 34 19 15
-0.63146 6.9036 8.7456 86 77 72
-3.8324 9.2259 8.596 61 47 54
6.8413 14.777 7.695 60 36 28
2.6873 5.2046 11.296 47 32 29
-2.4622 8.246 7.0004 83 71 74
-3.887 5.9249 13.245 28 19 18
-7.6635 -2.5069 17.604 42 32 33
1.1219 4.4946 11.37 84 71 64
-0.83394 8.2427 7.4776 45 26 28
-2.0287 6.5578 8.5488 72 62 70
-3.5557 8.2353 6.6558 54 43 41
2.0347 8.3138 8.3284 85 73 61
7.1503 15.07 10.463 138 122 77
-12.843 12.211 6.3859 111 87 60
1.2319 2.3402 15.911 70 26 27
0.51163 7.0041 9.0271 110 100 91
-0.94359 6.9274 8.6067 75 63 51
6.1181 4.7755 14.654 64 22 16
0.1375 17.719 6.8245 131 126 88
-4.6118 7.4397 6.9765 30 21 22
1.6566 14.806 4.5736 79 67 44
-2.0666 7.8053 7.486 63 40 37
1.61 15.935 9.2046 135 128 86
-3.832 7.055 7.5279 50 33 39
2.4625 2.3751 15.044 75 25 28
-1.9487 6.6797 8.4527 69 60 63
-1.2566 0.81214 16.221 93 89 79
-0.94248 0.89757 16.072 90 90 79
-5.4518 13.024 5.1567 38 30 17
-1.5258 8.9632 6.6409 91 80 78
-4.236 14.705 2.5507 92 67 61
-1.5825 6.2098 9.0108 55 45 36
-3.2323 5.6137 8.9424 58 43 48
-0.28249 7.9511 7.9103 88 75 66
-5.7049 3.9866 10.988 41 30 17
3.9686 9.8949 7.6825 46 36 31
-0.33817 7.5306 8.2614 94 77 64
-3.6281 8.7571 7.8265 60 49 55
-0.51286 9.5197 6.466 106 101 95
1.1849 3.2075 16.784 107 104 97
-1.0704 1.0679 16.337 101 98 90
-0.86976 6.9268 8.6274 73 63 64
-6.0481 5.9997 7.6883 82 73 72
8.4917 13.08 10.959 136 113 81
6.2699 16.711 4.7283 32 23 15
1.3339 16.218 10.48 87 75 56
-3.5709 6.4775 8.0858 97 83 79
2.5918 6.9884 9.727 62 53 46
-1.5981 6.421 8.8056 103 81 84
-0.37689 7.8651 7.9477 96 66 64
-3.2534 6.4426 14.358 30 23 18
-4.4145 5.6499 8.5077 127 122 116
0.4779 16.907 5.67 112 107 76
-1.836 8.4114 7.0448 75 48 48
-3.4204 8.0924 7.2689 32 23 22
-2.2699 7.8034 7.4304 62 51 45
-1.3891 6.6924 8.6364 87 66 71
-2.8487 6.4906 8.3321 82 74 71
-1.3294 7.0131 8.377 41 28 28
-1.4061 7.0418 8.3463 93 83 81
-0.1256 9.4047 6.6948 162 156 144
-0.18672 2.6252 17.226 76 30 32
-2.3921 6.6005 8.3797 49 40 41
2.7427 13.91 9.5173 40 31 31
0.94 1.9026 13.694 69 52 50
5.793 9.4182 29.183 157 130 77
0.51733 2.858 16.949 109 106 98
6.8172 15.738 11.044 146 127 78
-1.4863 8.4918 7.0541 136 127 114
0.42591 7.3392 8.6799 53 38 33
4.8999 3.6253 14.423 108 97 77
2.9281 11.312 5.9793 69 55 55
0.0078557 8.4319 7.5543 67 33 38
-4.049 9.4217 6.2683 33 23 21
-1.7554 8.6502 6.8193 102 88 85
-2.2724 8.9042 6.4664 93 78 73
-0.68807 7.5675 8.1235 49 38 30
-1.1107 7.6705 7.9011 44 34 34
-3.502 5.4049 9.0298 48 28 30
-1.213 7.0732 8.3915 84 64 56
-4.2904 7.0527 7.4905 26 17 18
-3.5593 6.7547 7.8658 113 97 84
-0.73881 6.9354 8.6992 73 64 47
-5.4999 6.0035 11.365 28 24 19
5.824 9.2588 11.606 46 32 19
8.618 13.5 13.529 166 144 86
12.32 10.561 25.693 199 172 105
7.4002 14.253 8.6038 99 86 51
0.30253 7.8081 8.2122 59 44 49
-5.8032 3.6767 12.874 26 18 16
-8.9376 -1.23 15.412 79 76 69
-1.9438 3.8733 10.871 65 50 56
-3.496 8.2996 7.5033 45 30 22
-0.81459 6.6509 8.8901 66 56 54
-17.372 10.452 5.5182 42 22 22
-16.725 7.5787 5.0952 92 88 87
-3.2165 8.3801 6.6414 88 73 66
0.24204 9.2209 6.9608 60 46 38
-0.31801 7.363 8.4197 90 84 72
7.0018 8.6662 17.847 84 66 40
2.4667 14.645 9.5302 125 120 88
1.785 10.381 6.4692 94 76 72
-0.23263 7.6952 8.1491 61 36 42
8.4378 13.609 12.781 170 151 100
-2.7365 8.9999 6.2519 89 82 76
-0.63542 7.7932 7.9387 67 55 57
-4.5887 10.937 3.9978 56 44 44
-2.4512 7.3877 7.6987 61 37 40
2.1115 14.571 5.7102 50 37 27
-0.94504 6.3347 9.1128 98 78 79
-4.2727 9.8836 5.9282 33 25 23
-3.3882 13.342 3.257 32 25 20
-7.9583 29.69 5.7309 61 38 23
0.75281 6.5674 9.4827 81 76 65
-2.315 6.8507 8.1976 67 63 56
3.5664 10.446 7.0516 56 45 39
-1.4637 6.6919 8.6151 97 82 77
-1.6991 9.9429 5.7376 100 94 94
-5.8818 4.6415 12.088 24 18 16
0.046932 9.5133 6.6425 57 50 40
-2.3944 7.7753 7.3844 85 72 66
-5.3588 7.7626 12.645 25 19 19
5.8062 8.8078 12.17 65 52 43
0.022197 18.091 7.626 141 136 96
-2.286 6.8832 8.179 118 112 116
7.5483 8.3829 17.155 133 118 76
8.6601 7.7657 15.438 38 25 19
4.9279 5.9434 16.704 127 115 91
-4.8655 8.2886 7.1043 30 20 19
1.7722 15.001 6.2846 67 62 33
-2.4626 7.5154 7.6024 35 20 22
-4.9042 11.304 3.6055 64 50 50
-2.5408 6.1043 8.7412 36 27 19
-11.479 1.5202 10.749 42 23 21
4.2763 3.5496 14.388 140 136 139
-2.2927 6.7117 8.3249 70 61 64
-3.8505 9.2073 8.597 65 55 64
-3.9268 7.4396 12.999 32 29 19
1.5844 5.1885 10.907 57 48 43
0.65565 5.9183 9.9945 76 71 67
-0.73449 6.6424 8.9203 79 69 61
-12.143 2.4585 10.428 36 22 18
-2.3891 6.3375 8.6089 71 57 57
-0.9427 7.5322 8.067 82 72 64
0.4567 7.1833 8.8424 40 25 22
-3.0585 7.3743 7.519 45 35 23
-0.39981 0.83991 15.188 41 32 33
-6.464 9.1367 4.9068 61 46 40
-2.3401 7.8301 7.3612 62 36 28
-21.625 8.9797 8.3436 72 57 61
-2.4054 7.5739 7.5519 40 28 24
1.48 6.4668 9.7961 80 71 63
-1.4807 8.1952 7.3302 117 109 107
-3.222 9.017 6.0903 68 68 64
-1.9527 8.6263 6.8035 64 45 43
0.56831 8.0434 8.0917 80 65 60
8.6978 12.746 10.932 128 106 69
-2.4081 6.1571 8.7511 70 50 38
3.2352 14.836 10.231 109 102 76
-1.7034 8.2472 7.2202 84 72 76
-1.9384 8.759 6.6938 92 77 75
-3.86 10.999 5.1952 55 44 50
-5.5343 8.7607 5.5292 55 37 35
-8.5868 12.577 3.6622 30 24 24
-5.2315 7.073 7.0684 47 36 33
-0.96991 6.4676 8.9897 111 97 93
-1.297 6.4552 8.8802 38 26 30
-1.5837 8.115 7.3756 75 55 43
-5.7639 3.9838 10.831 41 35 14
-4.4195 6.6594 7.6679 64 53 51
-0.65226 7.2579 8.4188 41 32 35
-1.314 7.9715 7.5524 64 47 40
-8.4274 12.593 3.5445 36 28 25
0.88476 6.914 9.216 47 43 40
-1.0191 2.695 17.902 115 116 99
7.0443 15.649 12.216 181 160 107
4.0695 3.2081 14.631 66 51 32
-5.0554 8.363 7.2744 33 23 23
-1.1506 8.0061 7.6015 96 90 90
-2.8997 7.0636 7.8354 82 77 71
-12.881 4.1497 12.467 57 44 42
-1.3511 6.6154 8.7081 6 0 0
-2.4078 7.5834 7.549 98 84 65
-0.50172 7.1688 8.5276 80 61 57
-2.7819 5.5801 9.4037 26 21 18
-10.481 32.659 3.8858 143 136 114
-2.6126 6.793 8.1329 62 40 43
-3.9022 16.788 4.2188 115 89 62
0.3696 7.6432 8.3911 86 77 67
0.70458 2.701 12.746 71 62 65
-1.6304 6.1088 9.0703 53 33 32
1.6635 10.31 6.4858 73 60 52
1.2591 11.007 5.7757 71 51 50
6.0902 4.1256 14.04 57 24 16
9.4067 11.792 11.672 121 98 64
4.9923 6.0079 16.72 126 120 91
-4.5157 7.1806 7.2113 43 31 28
8.7178 13.302 13.385 174 154 104
-3.6336 8.7626 8.0355 54 44 58
-2.5906 6.2621 8.6182 69 57 59
-0.38704 2.1746 16.932 114 106 100
-3.9414 10.065 4.9743 38 31 23
-3.9031 6.9552 7.5897 53 33 34
-0.43566 7.4759 8.2652 64 54 55
-6.7191 15.788 5.2919 86 45 52
-8.5179 11.757 2.8435 38 30 30
6.0983 9.552 29.092 205 180 116
-2.4172 8.6758 6.6195 97 91 91
-8.7636 6.0847 7.4306 70 28 20
-0.73221 8.5321 7.2516 91 85 70
-0.30716 10.647 5.5806 74 63 53
8.9543 12.429 11.328 127 111 76
-2.7203 7.1522 7.807 43 32 30
-2.6559 10.071 5.3353 31 23 21
3.7252 5.5109 17.171 131 121 83
7.5277 15.106 13.236 186 169 117
0.95331 11.249 5.4341 63 52 48
-9.1451 11.691 4.6999 51 26 21
-1.3426 11.439 4.5723 102 89 76
-1.4972 8.6191 6.9347 122 106 93
-15.821 6.6283 6.236 71 25 28
-2.5127 28.248 4.4846 155 136 96
-0.44726 9.617 6.3972 63 48 43
-4.3693 4.8479 9.8163 33 24 24
-8.1522 -2.3413 16.027 47 23 21
-5.8279 16.796 5.6435 92 69 48
-2.8178 6.6961 8.1706 86 77 72
0.31603 6.6097 9.295 93 84 75
5.407 9.1644 29.237 145 86 70
1.0372 8.1095 8.1848 69 59 60
-0.26322 10.462 5.731 75 60 55
4.2577 6.0163 17.277 123 109 83
-1.652 7.9981 7.4502 94 84 82
-1.7389 6.5573 8.626 54 42 46
-1.6881 6.8181 8.429 17 7 5
-2.604 6.9341 8.0311 62 52 50
-4.7707 7.6258 7.7048 34 23 27
-2.7405 7.5211 7.5071 62 45 45
-2.7627 8.095 7.0197 55 37 37
-1.8067 8.0099 7.4049 67 56 59
-0.19812 8.4935 7.4458 85 59 56
-3.821 7.8196 6.9208 69 48 43
-1.169 6.6787 8.7475 57 36 31
-1.4777 9.0988 6.5388 121 108 99
4.0883 6.0303 17.416 117 104 72
-10.905 14.098 6.7977 96 59 37
-2.2982 6.9815 8.0865 45 32 31
-1.6727 6.7675 8.4796 137 132 129
2.4646 14.578 9.2306 124 112 77
-0.7997 5.9908 9.4603 80 65 44
1.8886 15.808 10.623 151 148 105
-2.4973 6.108 8.7633 101 96 92
-5.4608 4.7224 12.582 24 19 16
-2.6536 7.2938 7.7239 91 82 85
-2.6433 7.3392 7.686 80 62 60
-1.3884 8.2006 7.3497 100 99 96
0.72561 16.449 5.4964 39 33 35
-2.1229 7.8063 7.4528 63 51 53
-5.2575 7.2991 12.404 28 19 18
3.5817 4.2856 16.062 121 109 86
-3.2829 6.0126 8.5785 99 93 107
-1.4042 6.1044 9.1496 75 65 61
-1.3537 8.2312 7.3189 73 58 54
1.3457 16.204 8.5657 138 129 90
-0.99133 7.6042 7.9922 92 72 63
-13.407 12.348 6.9256 110 81 54
-5.0623 9.8794 4.7678 67 53 44
-11.465 1.4305 10.48 41 23 22
-2.512 6.292 8.6169 84 77 72
-2.3276 6.3504 8.6057 74 61 53
-3.7268 13.645 2.9541 61 57 55
-2.4901 7.8332 7.3274 83 54 57
-2.0039 7.9078 7.4225 109 103 107
8.8649 7.4222 13.803 87 71 40
-0.90938 6.6512 8.8603 90 77 77
-2.7974 15.725 5.4158 43 30 3
-0.4534 7.2408 8.4848 86 55 55
-2.0779 6.146 8.8747 54 46 44
-4.4005 8.6486 14.682 47 39 24
6.7518 14.961 7.8802 63 42 25
-1.4825 8.1646 7.3644 58 37 32
-0.92179 7.7881 7.8484 74 66 64
-2.3444 7.8015 7.3952 65 45 46
-4.3889 8.6009 6.0683 55 35 37
-2.5831 7.1139 7.8978 81 72 65
-0.97352 9.0185 6.7468 11 0 0
2.2998 15.292 9.1039 144 148 131
-7.0827 10.09 3.9011 70 52 48
9.0798 7.2929 14.915 67 52 38
-0.6978 7.2244 8.4077 47 42 38
-5.9771 8.7236 5.4419 52 31 31
-4.3235 9.7442 5.1462 47 33 32
1.0644 7.1703 9.0623 58 48 49
1.7291 14.568 4.0112 76 62 43
-8.3101 30.226 6.2628 72 69 64
9.9128 10.282 27.105 207 173 112
-4.2629 7.1516 8.0197 35 24 25
8.0168 8.9752 14.643 122 106 73
-1.9978 8.0004 7.3341 119 117 119
-2.5584 6.454 8.4518 89 84 81
-3.3595 7.8741 7.0934 41 30 28
-3.9425 5.6048 8.7009 46 31 34
-4.3083 8.0603 6.5609 61 50 48
3.2505 10.854 6.5226 56 38 38
-1.4762 9.2597 6.4001 73 62 61
1.0526 7.6503 8.6124 104 96 87
-0.11658 9.6855 6.4331 42 32 20
-1.5315 6.8053 8.494 72 69 72
2.4456 14.607 10.461 83 84 77
-1.6543 7.9974 7.4454 46 30 31
-4.4446 8.2367 14.184 40 31 23
-1.5575 19.409 5.0255 98 60 25
-2.3687 7.371 7.7425 92 85 87
1.4835 15.402 6.0305 94 89 59
-3.2785 2.017 18.889 77 34 39
-2.5459 5.692 9.7178 31 21 22
-2.3749 8.1627 7.0779 48 41 30
-4.8241 -2.637 15.399 36 28 25
9.557 11.667 12.157 113 90 58
-4.473 5.3139 8.768 79 64 61
0.51736 6.0933 9.803 69 62 54
-0.97511 8.6229 7.1106 71 46 48
2.3005 15.185 10.774 136 128 89
-2.8582 5.6381 9.8559 27 18 19
-3.0896 0.32666 17.08 102 98 93
1.0086 5.0085 10.883 66 52 52
6.5755 15.436 8.7706 102 83 50
-1.5679 6.8809 8.4055 66 47 52
-12.138 3.0712 12.429 50 24 28
-1.9667 8.0176 7.3335 63 61 63
-6.0442 -2.1345 16.831 80 74 65
-2.9901 11.079 5.0176 30 20 19
9.0584 12.466 12.166 137 114 73
-1.5351 11.322 4.6287 74 64 55
-1.0287 7.9485 7.6949 23 5 5
-3.8939 10.463 4.6981 25 19 19
-4.907 29.768 7.6982 133 104 72
8.1868 13.603 11.185 150 132 88
4.9786 3.7374 19.677 57 37 33
-3.1408 8.8042 6.3072 40 36 33
7.6699 15.261 11.887 157 157 129
-1.0859 8.4946 7.1844 79 66 60
-4.6414 8.7214 5.8884 89 74 69
-2.4235 8.3424 6.9129 92 78 69
-0.63947 7.66 8.0581 91 81 71
-1.9555 6.6307 8.4886 87 85 89
-2.327 8.0209 7.2115 64 61 63
-2.701 6.7824 8.13 62 51 55
1.0434 7.4695 8.7698 92 83 73
-2.5278 7.772 7.3586 76 68 66
-6.9522 9.067 14.23 21 30 11
-5.4592 3.4325 10.512 45 34 27
-2.0486 6.5585 8.5323 135 129 126
-14.152 5.5789 11.016 57 38 32
0.040774 8.8726 7.1969 56 44 40
-0.98161 6.9508 8.5612 116 91 87
-2.8733 15.696 2.4219 53 24 21
-2.9847 1.3975 12.543 67 55 60
-3.5996 8.5242 6.3966 74 58 61
-8.8548 6.5792 11.417 45 38 15
-2.7604 7.0865 7.8613 53 36 42
-1.5628 6.1651 9.0392 87 65 57
-2.9615 5.907 8.9601 30 22 19
-2.9763 0.3036 16.976 100 97 90
-5.7313 6.5774 12.102 26 21 19
-2.755 6.5201 8.3458 82 57 50
1.8504 5.2521 10.96 77 67 58
0.21942 7.5335 8.4462 70 55 50
-2.332 6.5696 8.4281 70 55 62
-5.6315 9.0443 5.3674 34 23 26
-2.5753 7.1246 7.8866 71 56 59
3.1306 12.813 4.8458 56 41 38
-4.1535 5.3524 12.228 28 20 18
-2.8009 7.8393 7.2179 42 33 33
-4.6056 4.6072 12.334 24 19 16
-1.4141 8.6763 6.9031 82 64 57
-3.5192 8.3731 7.7157 39 27 26
-7.8193 29.903 5.6146 73 44 32
-2.2959 7.773 7.4296 79 50 54
-3.8241 6.4437 8.0385 78 69 63
-1.4181 6.7625 8.5673 52 37 42
-2.4718 7.0036 7.9913 42 30 32
-1.9704 6.4649 8.6432 60 43 49
-4.5844 -1.6277 16.257 88 82 75
-2.7469 6.2036 9.5654 29 19 19
1.0089 16.181 6.0942 112 102 74
1.6715 15.562 8.0281 122 112 81
-1.8175 8.873 6.6249 40 24 23
-2.4339 8.315 6.9354 85 85 85
-1.1986 7.8975 7.6679 96 75 62
-2.3683 7.0136 8.0373 80 78 83
-5.6332 12.796 3.9617 29 28 18
-2.7741 6.89 8.0167 67 41 38
-18.144 10.466 6.0506 46 29 21
-2.5344 8.3653 6.8603 71 59 62
3.6505 2.6864 14.445 95 83 60
-2.2671 2.841 11.573 59 45 44
-5.7797 -0.90309 17.85 98 97 79
-1.9624 7.9625 7.3864 68 63 59
0.78625 1.8137 15.72 112 103 96
-2.9924 9.0895 6.0838 94 83 79
-1.5946 6.9363 8.36 61 52 52
-3.4625 7.6122 7.1977 62 48 48
-1.3632 0.34801 15.848 96 92 91
-3.9252 6.6709 7.8275 57 39 37
-0.29694 1.8889 16.583 105 96 89
-16.718 7.4817 4.7302 101 97 94
-2.3872 7.5626 7.583 114 103 94
1.3383 15.463 7.0747 53 33 30
-12.91 11.902 6.1402 113 91 63
-2.9383 1.2342 17.862 73 30 27
-1.8874 6.8781 8.2931 36 26 28
0.23132 10.037 6.2603 53 38 33
-1.3701 8.2153 7.3378 30 12 10
9.4513 11.62 11.248 112 96 63
-1.7238 8.9504 6.5914 61 47 46
-4.9764 13.186 5.1177 31 27 16
-0.17595 17.479 3.568 32 23 16
-2.1836 6.8136 8.2592 37 22 17
-4.4904 5.3336 8.7586 60 51 52
-3.9633 1.1776 18.565 116 112 103
-3.1422 6.9305 7.8594 51 39 40
-4.2255 7.3653 7.1433 36 29 21
2.422 13.628 8.3211 46 31 31
-6.1109 17.168 6.4956 50 31 24
-1.2023 19.752 6.4755 105 88 58
-5.6942 16.349 5.1191 116 96 81
1.8069 7.9093 8.6298 68 63 54
-4.3388 7.0468 7.3922 37 30 24
-2.7802 6.8376 8.0595 63 43 42
-3.4799 10.024 6.1862 70 57 48
-1.348 9.7145 6.0341 42 27 24
-5.2989 8.096 6.1961 74 72 60
1.3196 14.927 2.7778 29 21 19
7.7903 13.715 8.977 106 91 54
-2.4167 7.2896 7.7984 99 81 77
-3.8318 9.1686 8.5538 79 65 71
-2.7109 6.6645 8.2279 97 74 60
0.7062 7.4365 8.6893 85 79 73
-5.448 16.689 5.519 39 28 33
-2.8739 7.066 7.8443 112 92 85
-1.7607 6.7181 8.4881 64 53 61
-1.7327 5.2849 9.7454 91 81 72
-3.5731 8.3647 7.7949 62 47 58
2.4971 14.899 8.7232 114 119 98
-0.70003 7.7943 7.9093 120 110 101
-3.2415 7.8794 7.1076 39 31 28
-1.3786 6.4588 8.8462 60 50 51
0.13489 7.1541 8.7571 49 40 35
-1.6761 6.1888 9.006 99 85 71
-4.8608 7.2063 7.0795 64 39 41
7.9535 14.305 12.596 179 155 107
-3.3904 11.298 4.1047 51 39 41
1.2447 15.147 3.1823 58 45 29
3.6663 11.984 7.1411 62 43 33
-2.669 6.7039 8.2242 78 70 68
-2.3467 6.5219 8.469 60 49 53
2.2586 13.901 4.7985 79 69 48
0.0052912 8.0761 7.8742 68 52 48
-1.6295 6.8781 8.394 72 69 66
-1.4354 7.0254 8.3476 95 76 82
-2.1243 7.7728 7.4822 96 80 81
-1.1402 7.3017 8.2112 72 51 46
8.9874 12.374 11.307 125 105 70
-5.481 6.0366 7.8314 70 62 56
-13.573 4.737 10.931 84 84 81
-8.4294 6.4604 7.3811 59 29 14
-0.10044 9.7897 6.3476 65 58 52
1.0348 7.7568 8.5014 75 64 62
0.32391 8.1636 7.907 59 54 48
-0.11608 8.0676 7.8578 98 98 89
-3.8681 7.2201 7.8886 46 34 38
-3.7934 7.4397 8.4305 30 20 21
6.2245 8.4431 18.208 56 36 20
-2.5742 8.3568 6.8476 46 24 18
-0.78176 7.5062 8.1558 92 84 78
-0.6221 7.6702 8.0597 85 81 69
-1.4749 6.6909 8.6188 90 75 80
-1.4463 6.5144 8.7726 45 34 30
4.8302 5.4415 16.291 123 116 87
8.8029 6.1128 14.249 65 58 47
-5.5591 4.7376 12.543 24 18 17
-0.6849 7.0769 8.5711 61 49 36
-2.5703 7.6208 7.4765 43 31 35
1.3287 4.9214 18.341 107 104 90
-1.0978 7.3019 8.2199 81 67 60
-1.3903 8.7275 6.8953 54 35 29
-2.5051 7.2136 7.8259 63 44 46
-0.63876 3.2437 11.813 53 39 39
2.5679 14.84 8.9438 142 143 126
0.69386 8.6357 7.5942 35 22 14
-2.2499 6.994 8.0808 101 86 89
-5.955 7.7602 12.217 32 27 16
2.2746 13.54 8.3275 40 29 23
3.6359 12.322 7.5058 55 43 44
0.89635 8.9161 7.4169 51 40 34
4.6791 3.9307 19.623 61 44 42
0.2354 2.5876 16.892 111 110 92
-0.35122 10.05 6.0399 115 117 114
-2.7499 6.5997 8.2871 75 59 62
8.2784 13.162 9.9109 124 99 68
-2.7496 10.188 5.7503 33 27 27
-6.0506 5.974 11.193 25 20 17
-1.8116 4.6507 10.256 105 89 90
-0.72216 6.9503 8.6719 101 82 68
-10.055 -0.028374 13.183 31 20 16
1.4917 10.127 6.5832 26 25 7
-0.91025 7.4843 8.1233 81 68 58
-2.4022 7.0959 7.9645 78 65 60
-5.504 15.058 3.7123 51 22 24
0.00082384 5.5971 10.054 59 50 48
-3.0471 8.2977 6.763 56 45 39
-3.0326 28.398 5.0039 158 140 94
0.35898 7.585 8.4393 57 42 43
-16.435 7.6215 6.8966 115 110 107
-2.9285 6.5413 8.2646 88 68 67
-3.5016 7.5479 7.232 52 40 44
-0.91751 8.8909 6.8809 35 26 27
-0.88859 7.6876 7.9523 63 46 38
-0.5082 8.2305 7.5861 61 43 39
-2.0012 32.051 7.6871 158 161 160
1.0275 16.693 9.7944 150 148 107
-1.1649 5.6018 9.6636 91 81 79
-1.9799 8.326 7.0653 86 61 54
-0.99615 7.5744 8.009 87 78 73
-2.693 8.4953 6.7032 101 99 102
-8.7157 13.515 4.6185 88 61 35
-2.5305 6.5775 8.3515 65 56 58
5.9072 6.7114 16.728 95 89 70
-1.9522 4.7613 10.139 45 26 12
1.029 3.3771 12.303 77 65 71
-2.4607 9.0955 6.2622 65 58 50
-1.5058 6.4891 8.7771 51 46 44
-4.2225 4.4003 9.6319 41 32 17
-1.8743 6.9286 8.2853 76 75 77
-2.8444 7.351 7.5947 51 33 38
-3.8618 5.8429 8.5272 76 66 65
2.4315 4.9049 11.472 67 59 46
-2.0804 7.9792 7.3407 88 86 88
-2.5789 10.05 5.3774 37 27 26
-1.8777 4.9727 9.9623 39 28 26
0.60029 6.9448 9.0983 94 82 82
-2.0759 6.7642 8.35 58 39 43
-0.49237 8.1151 7.6775 76 62 61
-0.52441 3.7761 11.421 69 54 56
-17.653 10.53 5.781 34 22 22
-2.5371 7.439 7.6166 41 27 24
0.96422 11.094 5.5899 102 103 95
-4.1891 6.1984 11.653 30 22 18
-2.5127 6.366 8.5461 78 74 71
-3.8505 8.1359 7.5908 60 49 53
6.7795 5.7881 15.19 109 94 71
-2.7321 5.9508 8.8144 62 50 54
5.8301 5.3351 15.432 94 80 53
-1.4684 6.6809 8.6219 72 63 64
-0.76727 6.6133 8.9316 32 16 9
-0.053747 6.9299 8.8912 86 74 69
-1.1105 8.7672 6.9268 117 111 104
-2.7723 6.9903 7.915 29 23 27
-3.4004 8.0898 7.2143 38 31 36
2.9836 6.3828 10.365 82 72 71
-0.79386 6.7723 8.8028 50 37 28
-1.3443 8.4793 7.1341 86 68 62
-5.2614 16.844 5.2627 99 70 43
1.5918 14.824 4.1872 73 64 43
-3.1298 7.1983 7.641 82 68 59
-2.1621 5.9933 8.9752 99 90 85
10.521 9.6382 10.597 35 26 24
-2.9033 8.6004 6.5468 89 76 72
-1.7718 6.7824 8.4347 66 55 53
0.089799 5.5039 10.178 86 75 71
-2.9595 6.2091 8.5201 45 28 29
-4.8877 10.493 5.5478 35 25 24
-8.5637 11.55 2.6831 39 28 28
-2.4326 7.7181 7.4368 96 89 82
8.5291 12.736 9.8282 105 91 56
-8.5925 -2.0467 14.355 76 66 62
-1.6097 6.9004 8.3733 50 37 42
4.1387 3.6084 13.706 111 106 105
-4.2851 7.1891 8.0653 43 25 23
-2.519 7.9952 7.1948 56 45 49
-2.4857 0.6466 16.953 100 99 95
-2.5483 6.5365 8.3969 61 54 54
1.9492 15.056 11.079 58 49 52
-1.0604 8.7297 6.9751 72 57 48
-0.89614 7.392 8.2082 49 40 32
-0.78814 8.7116 7.0835 58 36 28
-1.2837 0.25783 15.464 43 32 38
0.17304 8.6908 7.3922 103 88 93
-2.3059 1.1368 17.317 104 100 95
-1.9224 5.745 9.2692 42 38 39
-2.5694 6.054 8.7873 57 38 40
-1.4304 8.3083 7.2537 30 17 8
-4.4203 6.2602 11.727 28 21 17
8.4862 12.691 9.3459 88 72 38
0.32796 6.7591 9.1865 97 86 77
-2.3835 7.1937 7.8954 70 56 60
1.3747 3.5625 16.988 119 116 105
-1.5296 6.8485 8.4562 105 89 90
-0.028995 6.825 8.9935 89 84 65
-0.58535 7.9841 7.7721 87 71 64
-2.3809 8.0337 7.175 74 66 69
-2.9606 8.6291 6.5084 66 44 47
-7.3028 16.502 6.4623 68 33 27
-1.9348 -0.327 15.581 59 25 28
-2.5183 6.8225 8.1515 89 87 92
-10.01 12.768 4.8768 103 76 48
-1.1947 9.0762 6.6384 63 46 30
-1.2557 7.0338 8.3957 65 51 43
6.5509 4.2517 13.826 56 44 43
-4.3219 6.5114 11.768 33 29 24
-0.75997 7.1077 8.5181 75 53 58
-4.9781 31.324 9.1887 150 153 152
-1.7513 6.4434 8.7234 55 40 35
-3.8843 4.0805 12.859 29 20 17
-2.2758 5.9889 8.9321 78 66 62
0.88236 16.88 9.6787 118 113 72
-4.8881 4.6548 9.1672 55 44 48
-0.58531 8.5213 7.3041 89 69 60
