7.6659 -14.557 8.7574 85 85 93
2.6885 -3.6455 10.178 90 69 80
-4.7094 -6.3799 15.315 60 43 37
1.9573 -4.0349 10.511 81 68 69
-1.6349 1.8682 14.985 82 76 92
1.0561 -2.802 12.392 86 50 47
1.0509 0.10284 12.59 47 33 41
0.7987 -3.6002 11.426 65 51 51
21.803 7.2778 17.555 144 134 121
0.39413 3.0786 15.207 31 21 19
4.2984 2.9535 17.432 87 76 72
5.0215 -0.14281 10.834 34 23 28
0.5409 4.26 14.615 33 25 22
0.87139 -3.2083 11.521 45 26 30
3.2676 -5.1529 9.2838 92 73 77
2.1335 2.2699 19.933 68 43 49
3.4687 -6.5236 13.648 27 19 17
1.2197 -2.5658 11.52 57 49 63
1.2234 -2.5596 11.522 61 50 62
17.45 -8.2082 7.8835 126 112 106
2.7636 -2.5014 10.572 63 54 68
2.6717 -0.81567 11.236 108 97 107
2.7844 -6.2077 10.116 65 53 69
0.68186 -1.2783 12.341 55 41 54
2.7181 -1.9469 10.796 104 114 148
3.773 -2.1848 10.705 29 19 21
3.3755 -0.22537 10.971 59 47 57
-0.04 1.7647 13.912 55 49 63
16.998 -14.434 8.9327 64 54 87
5.6255 -1.6298 9.0003 57 58 76
0.9471 -2.092 11.867 49 37 46
11.057 3.6369 12.558 69 36 43
1.7436 -3.3871 10.881 73 66 66
1.4749 -5.5474 13.772 32 23 17
1.2152 -1.2244 12.006 130 131 138
2.8861 -2.1395 10.639 47 39 61
-3.6615 3.0443 16.852 51 30 37
17.229 -22.277 8.2522 181 154 103
0.89926 -1.8645 11.976 43 28 38
0.33784 -4.2331 12.33 51 23 11
1.888 -6.9023 13.508 25 19 17
3.5453 -2.0073 11.33 30 19 23
-3.3692 -6.8415 17.552 67 61 64
4.0972 2.8971 11.65 57 48 75
12.493 -2.8714 7.8827 48 36 36
4.5202 -9.1438 12.391 34 25 15
5.7637 2.9165 13.585 31 19 19
11.23 -14.296 6.4236 153 142 120
1.1969 -6.2837 10.712 46 35 38
4.525 0.98026 10.7 75 70 90
3.9812 -14.408 9.8995 122 114 111
3.1228 -0.93703 10.895 65 52 62
3.3613 -2.1859 10.766 43 30 46
2.8388 -3.1705 10.268 55 46 51
1.8119 3.8165 15.556 34 23 27
1.3698 3.0381 18.952 71 70 111
1.2177 -1.4656 11.925 62 54 65
-4.3741 -5.1175 14.108 49 37 39
3.0688 -0.53301 11.098 87 71 84
-5.1047 -10.005 14.14 65 49 55
-3.1744 -5.0529 18.246 75 67 72
2.2329 -2.7726 10.794 59 51 54
2.6896 -0.88978 11.202 70 61 82
2.7436 -0.86919 11.175 125 105 114
13.511 -22.755 11.599 172 149 106
15.612 -9.1537 4.502 131 127 119
20.518 10.074 23.421 162 182 235
1.3957 -3.9308 10.918 59 44 51
8.0933 2.3555 16.408 35 24 28
1.5923 4.0676 14.8 42 38 62
2.0165 -3.5026 10.673 46 31 28
8.965 3.7025 13.74 5 2 19
2.8404 -0.88032 11.11 61 51 59
0.53924 -6.1105 15.688 29 23 21
12.937 -0.30426 8.9424 106 110 113
0.83137 -0.63624 12.468 74 70 101
6.6623 2.7448 17.15 72 49 41
2.9186 -1.0695 10.987 77 71 84
5.3135 -6.8729 7.406 94 84 89
3.4942 -3.7316 10.639 36 26 27
4.2073 -1.9794 9.8619 55 47 62
6.5857 1.6614 12.21 32 25 17
4.9652 0.59251 10.283 45 33 45
2.0096 -13.842 9.0045 109 95 88
0.035959 6.5361 15.815 39 20 12
1.6537 -4.8902 10.409 94 80 83
14.299 -7.9254 2.5111 116 111 108
0.61351 -3.081 12.566 78 43 47
3.0702 -2.7137 11.17 32 24 24
-4.7954 -10.552 14.601 80 68 72
2.7463 -4.1664 9.9687 38 21 30
1.2115 1.249 12.914 81 77 91
0.56521 -5.812 15.225 27 18 19
3.0987 -2.6259 11.014 30 20 20
2.6761 -3.2177 10.355 99 93 95
-0.092733 -0.48843 13.103 25 17 38
0.9651 -1.6655 13.015 48 24 19
1.3318 1.2642 12.831 52 46 56
1.5994 5.6004 17.184 31 20 24
0.54137 -0.060556 12.858 84 79 85
13.892 -2.3899 9.8945 109 122 156
1.1459 -5.8384 12.704 32 25 16
4.0024 2.8387 14.598 41 22 20
-3.4692 -5.4096 17.653 59 26 37
2.3338 -3.5481 11.186 32 22 22
1.8222 -4.6372 10.39 52 32 43
1.0956 -2.1135 11.781 63 50 63
2.6722 3.9224 15.2 28 24 22
3.5787 -1.8124 10.311 40 29 45
3.2244 -1.4363 10.662 57 46 59
2.2371 -3.6279 11.15 42 28 28
0.24391 -0.73733 12.801 64 55 72
1.711 3.0431 13.298 57 44 54
3.3054 -4.9154 9.3475 80 64 67
3.054 3.3027 16.777 116 104 107
3.1792 -2.4875 10.322 53 39 54
2.3746 -2.6996 10.753 77 62 67
1.7908 -3.4296 10.841 65 49 55
2.6003 4.0784 14.616 39 33 40
3.6526 -13.647 7.6374 79 28 26
4.0255 2.7806 14.658 34 20 22
2.2154 -2.5339 10.902 94 82 98
1.148 -3.1012 11.375 83 80 83
-0.64636 2.3625 14.524 81 74 90
5.7497 4.0299 13.228 47 27 23
3.1358 -0.66962 10.997 45 32 49
1.8562 -0.62526 11.804 93 89 103
0.77434 -6.5331 14.127 25 19 17
1.1234 -1.1606 12.081 57 54 85
3.3515 -14.284 9.7967 122 112 102
2.5806 3.1621 18.021 67 64 102
1.6042 3.4726 16.739 43 35 59
5.7707 -15.126 11.504 60 41 37
13.944 -12.104 7.3943 161 159 148
4.819 -0.49084 9.9933 61 54 62
1.3382 -2.4324 11.504 58 46 55
3.1126 -2.6078 11.192 50 49 75
3.3601 2.8322 14.892 58 25 36
1.5483 -1.1026 11.832 53 44 49
0.78541 -2.2562 11.901 22 14 25
2.5894 -0.49635 11.578 39 28 44
2.0539 0.53309 12.1 101 91 96
-0.12323 3.2777 18.149 126 114 120
3.4174 0.21848 11.132 64 58 63
15.302 -3.1239 4.9166 57 47 54
2.7452 -0.80911 12.296 36 25 31
3.2394 0.14721 11.748 33 24 26
5.0802 0.2865 11.199 32 23 25
3.0079 -1.4015 10.813 60 53 69
3.4187 -1.1507 10.669 75 69 83
2.9214 -3.0033 10.283 55 44 58
2.662 -3.5276 10.244 65 50 56
0.73777 -5.035 10.902 49 33 46
2.9873 -0.97859 10.975 61 50 66
3.1227 -1.9372 10.56 57 45 62
4.0579 -14.531 10.307 91 32 38
1.623 -2.9937 11.102 74 74 74
2.1106 -0.13718 11.82 33 21 25
2.636 -2.7271 10.567 53 52 60
-5.1305 -6.3796 14.598 58 40 37
6.1802 3.1405 16.037 109 99 99
4.1153 -0.54028 10.43 66 62 77
0.1061 -0.21941 13.092 44 34 60
-0.35113 1.4199 13.995 75 65 76
1.8898 -13.105 7.931 25 20 20
-0.31784 -1.7524 13.143 54 27 36
1.8672 -5.9721 13.16 27 19 17
3.9652 -2.5198 10.688 40 31 48
1.0856 -3.2538 11.342 67 46 56
3.033 -2.6488 10.904 30 20 20
2.0748 -0.48299 11.717 51 42 50
5.647 -8.2802 15.002 66 64 50
1.2696 -2.707 11.438 63 51 63
-0.1559 -0.18621 13.252 48 41 57
2.0016 -3.1857 10.795 24 16 27
3.2447 -5.2532 9.7267 32 22 22
-0.095086 -1.8753 13.134 55 27 24
-3.2226 1.7751 19.759 98 102 112
2.8772 -1.0639 11.015 59 40 62
1.8172 -5.8739 14.442 33 28 25
20.942 8.1509 23.426 140 156 215
2.4132 2.5117 19.608 94 69 65
3.3682 -2.1924 11.069 46 38 68
2.6498 -3.584 10.227 38 28 33
3.5005 -1.0431 10.634 24 15 34
14.933 -3.9774 3.8534 98 92 94
0.68471 -1.17 12.342 30 21 26
3.3126 -2.9639 10.927 55 51 76
1.3707 -6.1101 13.122 27 19 17
1.5335 -5.8554 10.15 51 41 44
16.903 -5.2159 7.234 102 102 100
13.583 -14.354 6.9533 70 60 61
3.2404 -1.9777 10.466 53 42 54
4.5083 2.652 18.289 92 63 59
2.4475 -3.959 10.228 92 78 90
-1.8705 -13.642 10.155 86 82 78
3.8046 -3.0789 10.577 49 41 63
0.79286 -2.1811 11.906 47 36 40
0.65385 -3.2852 11.619 55 40 45
4.2567 0.59633 10.73 69 62 78
2.0424 -3.235 10.782 34 22 23
16.243 -11.848 6.848 137 130 120
1.3529 0.067174 12.378 127 129 132
4.3825 -1.1166 10.021 85 81 113
5.0713 -14.62 10.144 126 123 114
1.0356 -2.8234 12.397 77 47 56
8.904 -13.891 6.1746 138 131 110
0.91879 -4.5387 11.01 49 34 39
3.7851 3.8407 14.663 45 26 21
30.049 6.2401 17.497 134 141 180
-3.3007 -4.8386 13.568 46 27 31
4.9994 -0.36629 10.685 36 24 28
8.38 -13.106 3.9028 77 26 22
2.897 -4.901 9.6124 38 27 30
6.5674 0.96762 13.73 55 54 42
0.64057 -3.6306 12.241 86 29 22
1.6942 -3.0035 11.048 128 130 143
-0.029609 -5.525 14.673 31 28 14
4.9547 1.8939 10.721 53 41 51
0.56238 -1.1162 12.475 35 32 49
2.6064 -3.0928 10.442 47 35 39
0.90033 -6.2593 13.191 25 20 16
-0.58359 -7.3161 13.849 25 20 17
1.1007 -0.20807 12.44 155 149 153
1.0353 -2.4838 11.679 58 47 54
5.0496 3.8452 14.146 31 22 23
5.1112 4.1673 13.083 42 39 54
2.1185 -3.2197 10.705 56 45 53
1.8896 -0.15517 11.936 67 56 73
2.075 1.2878 12.346 90 73 81
1.4227 0.29173 12.43 93 86 98
2.4353 -0.80389 11.38 59 51 64
1.8969 -2.8151 10.99 72 61 73
3.6947 -1.7943 10.252 71 69 70
2.9545 -5.5766 16.856 55 57 35
4.115 3.0219 17.268 114 102 100
1.4273 -2.5099 11.397 66 51 48
24.023 6.3153 19.901 140 150 185
0.1849 -5.5905 11.242 41 27 23
0.93876 1.7895 13.279 58 52 68
-4.6726 -3.9963 15.39 48 35 34
-2.6191 -4.7739 18.514 39 28 38
2.5867 -3.6017 11.055 52 33 34
3.9343 -2.7553 10.614 50 43 61
1.5597 -3.3951 10.997 47 30 36
1.2257 -3.4183 11.205 58 43 46
-2.8277 3.2622 20.801 91 89 94
5.6859 3.5975 14.736 68 56 56
20.874 -23.041 9.1682 185 157 118
3.2404 -1.9612 10.858 30 20 23
0.38708 -6.6624 12.132 37 25 16
-5.2155 -6.6 14.408 52 32 31
3.6598 -3.6626 10.438 63 61 64
12.42 -0.36076 8.0188 97 96 104
0.92503 -2.973 11.926 43 21 15
1.3724 -3.0759 11.239 73 61 63
1.7149 2.1731 12.927 92 88 102
9.5068 -13.634 5.0639 131 126 106
1.9524 -3.016 10.889 77 71 81
4.7448 3.017 17.397 88 53 73
2.9773 3.3205 16.75 117 107 109
2.2922 -0.77947 11.495 89 83 95
0.71454 -1.7871 12.091 40 30 30
2.9012 -2.995 10.29 59 42 52
11.185 -13.031 2.907 43 29 31
0.66159 -2.1223 12.037 53 40 50
0.98715 1.1185 13.015 82 75 82
2.1584 0.2053 11.917 67 58 62
8.6808 4.3311 11.17 66 35 45
9.6139 -7.7007 4.3959 50 37 46
-0.78414 -1.34 13.247 75 62 72
1.2988 -2.3375 11.559 75 74 82
4.7853 -6.9894 7.6929 105 96 101
0.22158 -8.5203 9.9658 42 31 35
3.3521 -0.55152 10.906 16 10 37
-3.7767 2.0231 18.743 36 25 30
2.0277 0.30245 12.034 87 73 73
13.439 -22.106 9.4393 168 143 97
2.1398 3.3854 16.858 112 101 107
0.51292 -1.7916 12.751 49 26 18
4.1719 -2.3523 9.7725 37 29 39
2.669 -2.2314 10.71 62 46 59
2.8322 -0.67882 11.895 61 49 69
3.2023 -0.3195 11.053 53 24 28
0.67595 -1.1472 12.376 69 60 87
2.3766 -0.68781 11.472 43 35 47
0.89668 -0.42999 12.483 60 52 56
2.4366 -14.432 10.701 125 119 111
12.827 3.0846 9.0903 34 24 22
0.74263 3.1076 13.973 59 53 75
2.246 -0.87119 11.497 141 119 131
3.336 2.8156 18.471 54 24 35
3.0679 -6.4897 13.901 27 18 17
-2.5195 -7.8248 11.971 47 34 43
-0.23248 -0.50133 13.191 31 29 51
1.2161 -2.0537 12.412 47 24 18
4.7543 -2.7508 10.742 70 69 103
1.1581 -0.37753 12.348 135 136 141
2.3117 -6.393 12.999 27 18 17
5.4708 1.9262 13.95 37 31 15
2.862 0.81687 12.383 52 45 79
-1.6474 -4.5057 12.643 64 58 62
0.82195 -1.5652 12.119 49 31 43
1.3479 -0.84724 12.048 46 35 39
13.115 3.4451 12.67 67 42 59
-0.50347 -0.35724 13.425 41 38 69
2.7918 -1.7035 10.838 68 56 70
2.6401 -0.93507 11.201 62 54 69
1.3457 -0.040079 12.347 87 78 84
4.4038 -0.32027 10.32 65 46 66
1.5313 -2.983 11.161 90 80 88
16.883 -8.746 6.7816 149 151 150
9.3116 -13.916 6.0669 134 126 104
2.7018 -2.4459 10.635 50 48 64
2.9705 -1.8762 10.653 46 35 49
3.5514 3.2913 16.608 118 108 106
17.458 -5.5033 8.1831 109 108 110
2.7521 -2.9335 10.419 64 54 63
2.7333 -1.142 11.081 82 68 80
1.9045 -3.2196 10.842 79 68 74
5.1493 -3.0782 11.492 81 84 120
2.851 -4.9505 9.6238 71 57 58
-0.29786 0.17216 13.494 93 86 104
1.1126 -13.496 8.9369 45 34 40
3.2997 -2.1065 10.948 30 20 20
3.1346 -3.1226 10.978 56 48 66
-4.9751 -13.585 13.982 56 24 25
1.5915 -0.078446 12.157 28 18 26
3.811 -1.0205 10.451 62 54 75
0.57607 -0.25164 12.761 55 50 47
12.425 0.63996 8.1245 75 75 80
3.2889 -2.2059 10.81 41 28 52
6.4492 1.7403 13.76 32 27 21
2.6947 -2.1281 10.748 67 60 78
3.6936 -3.1039 10.639 57 53 78
13.711 1.2532 10.463 109 114 118
-4.022 -5.9743 16.557 86 75 79
2.517 -0.52736 12.312 27 17 19
4.3113 -1.9035 9.7923 64 57 73
9.0807 -12.383 3.087 60 45 42
0.99935 0.96417 12.946 69 55 68
2.5386 -2.375 10.774 78 69 81
1.9011 3.859 15.369 35 27 31
0.87712 0.14593 12.722 38 25 39
1.4795 -8.1766 12.542 29 21 19
7.9497 -0.74778 7.7904 128 125 156
1.1329 -1.5927 12.528 39 23 16
1.9043 0.55097 12.195 76 62 69
4.4528 4.1252 13.401 39 32 47
1.8624 3.2126 17.568 124 114 108
0.2604 -0.97881 12.706 22 10 30
2.572 -2.9313 10.529 70 63 67
-3.8123 -6.8649 16.773 70 66 67
0.20564 -8.1729 14.307 25 19 18
3.9455 3.3672 16.157 120 107 99
1.3936 -0.68693 12.081 61 52 60
4.1178 2.7629 14.624 50 39 48
-3.3583 -6.4702 17.638 45 22 27
6.8556 -13.617 6.1851 129 115 96
3.7419 -1.1216 10.471 63 54 78
0.44798 -6.9167 12.676 44 33 34
-0.89931 1.4197 14.356 69 65 82
4.9916 4.0698 13.456 42 35 49
1.6998 -0.30134 12.002 58 50 65
-0.60218 -8.9596 10.315 49 36 45
2.2612 -0.27089 11.836 35 24 28
0.80878 -2.7894 11.736 50 20 14
1.2414 -1.6172 12.8 41 23 21
3.3406 3.3165 16.615 103 91 91
-0.54383 1.0113 13.979 124 118 132
1.7558 0.43492 12.257 83 75 78
12.307 -0.39832 7.8139 94 101 109
0.70315 -6.1473 13.388 24 19 15
1.2762 -1.5497 12.852 39 24 21
1.0549 -1.6793 11.942 47 40 52
-0.31217 -13.827 10.016 62 28 23
3.1926 -2.9582 10.125 41 30 32
0.88221 -2.3659 11.799 54 42 58
1.5433 -13.853 9.2632 106 97 90
13.954 -1.4647 10.619 124 125 129
1.3831 -6.0034 12.632 29 19 18
1.0037 -2.6452 12.129 43 23 16
0.82314 0.039101 12.717 56 42 42
1.1951 -2.1686 11.675 51 37 59
0.070105 -0.68851 12.936 62 54 82
2.3642 -5.3853 9.781 56 36 47
-3.7501 2.7993 18.992 84 81 97
14.594 0.61844 12.419 62 37 43
2.5629 -0.62432 12.45 27 18 17
1.0712 0.62327 12.771 75 58 64
9.493 2.8802 15.553 60 39 26
14.528 -12.013 8.2243 147 141 131
2.6986 -6.6441 13.119 30 21 19
1.3545 4.0712 14.922 57 53 80
1.0715 -1.2388 12.088 43 40 56
-3.2514 1.8783 19.728 98 99 117
20.562 5.5862 23.292 65 48 68
2.3226 -0.26975 11.94 31 25 27
1.8456 -3.0945 10.929 59 47 51
11.533 3.9572 11.19 83 73 69
-5.2184 -13.902 12.477 38 22 18
2.3757 -3.4026 10.813 27 11 12
2.4722 -0.39238 11.516 47 43 57
6.9034 -0.0075001 9.8189 36 29 36
3.6062 -3.567 10.357 34 24 25
3.0968 3.2617 17.525 62 60 98
2.1077 1.5152 12.414 58 48 57
3.1402 -3.0469 11.005 56 47 68
4.2636 -0.35582 10.385 55 45 54
13.14 -13.249 5.5329 139 134 138
2.3728 -2.5111 10.81 101 80 85
3.5152 -0.064152 11.585 34 23 27
-4.4805 -4.6017 16.057 33 20 20
5.0985 -4.8198 8.2604 61 56 64
6.116 1.701 15.033 44 44 31
0.29666 -2.1152 12.7 74 43 54
0.75657 -1.019 12.378 90 84 98
0.71217 -4.3025 11.226 49 24 20
12.109 -11.42 4.2054 137 130 127
0.91245 -2.8206 11.62 44 37 45
1.7077 4.237 14.182 36 27 32
2.7203 -2.3396 10.654 62 52 60
10.567 5.3073 11.033 35 26 24
-1.4818 1.0365 14.608 40 30 55
2.1355 -2.6249 10.903 93 84 83
2.1402 -3.6309 10.538 48 35 44
2.4048 -3.1443 10.535 81 67 70
0.49032 -2.1197 12.575 88 58 69
-4.7548 -12.162 14.468 79 77 80
1.6742 -0.65182 11.916 118 109 134
3.3929 -2.6308 11.005 54 47 80
1.9856 -2.9668 10.883 50 41 46
4.7962 -2.901 10.931 62 56 89
4.7659 -14.326 9.3386 128 128 128
2.1907 -0.87956 11.514 54 51 62
13.979 0.4115 10.859 121 126 125
5.68 2.3537 12.793 32 28 17
1.2392 -4.0096 10.994 61 46 54
1.271 -3.618 11.111 110 109 117
4.3025 -4.7721 8.7611 83 77 89
1.2586 -0.74072 12.148 93 69 82
-2.7597 2.9102 20.864 89 89 91
1.3666 -3.457 11.097 36 20 20
1.9577 -0.81212 11.678 60 35 39
1.1858 -4.4824 10.869 46 34 48
-0.99451 3.4412 17.944 116 112 113
-0.55112 2.8277 14.684 61 49 70
0.73828 -1.1671 12.331 56 46 73
3.5184 2.2082 14.46 58 24 28
23.175 6.3112 20.258 146 150 190
17.097 -10.26 7.0084 132 130 117
0.74997 -2.1826 11.94 86 78 91
2.0314 2.7766 18.978 124 112 115
1.2073 -1.5493 11.891 98 95 111
-2.3268 4.0877 22.059 36 25 29
0.9781 -3.3219 11.406 58 45 54
1.5078 -2.8006 11.251 82 72 76
2.8819 -5.6408 10.23 60 48 57
0.33613 -3.4215 12.619 86 42 30
3.1124 -14.326 10.045 120 108 102
4.9863 -0.80944 9.7549 48 38 50
4.3057 -13.552 7.0124 67 26 26
9.5763 3.4679 8.8491 35 25 24
10.814 -8.1787 5.459 37 32 19
0.73017 -1.1774 12.33 50 42 63
5.7312 3.6404 14.583 74 63 65
7.6942 -7.4623 5.659 69 66 69
0.97835 -1.3914 12.109 70 70 96
2.3719 -2.8512 10.681 84 70 69
3.144 3.3591 16.55 121 106 101
-3.2485 1.8602 16.134 76 72 97
3.1528 -0.27501 11.116 87 81 91
2.6047 -4.0604 10.094 66 55 62
2.4007 -0.7751 11.427 60 44 61
3.1992 -1.1937 10.783 66 53 79
12.993 3.2106 9.4018 33 23 24
9.3342 -13.104 3.4785 117 110 91
3.9205 2.1476 18.86 41 29 42
0.39539 -0.086234 12.94 84 71 81
2.5236 -0.98434 11.271 75 72 89
0.51438 -3.9891 11.859 37 28 26
2.2619 -2.9902 10.706 56 47 50
0.095821 -0.42427 13.007 62 50 74
0.18364 -2.5323 12.202 45 34 38
-0.7225 1.1708 14.143 78 70 82
13.758 1.3443 10.552 106 115 117
-3.6878 -9.0412 16.665 66 53 55
-3.8283 -6.3864 16.813 76 71 75
15.496 -22.593 10.134 178 150 103
3.042 -2.8776 10.918 34 21 20
8.5676 -14.682 8.8012 149 138 118
14.588 2.9012 12.179 63 58 63
1.3693 -5.5177 15.027 28 19 18
2.6836 -1.0715 11.131 107 114 124
1.4404 -0.78876 12.021 65 63 68
-1.6278 -0.014194 14.311 57 52 72
3.1844 -1.2992 10.743 73 75 81
0.83199 0.94675 13.045 63 42 57
2.2855 -3.6764 10.452 102 95 103
17.292 -6.5638 7.7666 126 122 119
5.8659 4.0656 13.041 49 32 25
1.9698 -14.101 9.8696 123 114 101
3.0496 0.12873 12.266 92 85 118
19.778 -2.7933 2.389 31 21 22
1.1139 -1.8171 11.851 45 37 50
-0.78153 -13.723 9.9016 60 26 22
2.6692 4.3521 13.392 34 25 26
0.061073 -2.6987 12.197 42 30 32
2.8071 -5.2341 10.033 30 19 23
4.8963 2.6273 18.197 80 47 38
-3.2853 0.20376 19.251 106 112 123
5.1117 -0.13845 11.164 31 21 25
7.5652 -14.199 7.7037 95 49 58
0.36671 -1.7584 13.267 49 26 18
12.769 3.1518 13.367 92 73 67
3.5616 -2.4928 10.065 35 26 25
2.4831 -3.5256 11.153 87 81 93
10.564 -14.712 7.9591 134 123 104
6.7608 -1.0187 9.7203 38 29 34
7.42 -13.896 6.821 139 129 117
1.134 -1.3998 11.995 69 59 78
-2.8252 0.54072 20.173 103 99 108
0.2587 -1.7902 13.152 54 24 24
0.61448 -3.4405 11.952 30 19 18
2.2729 -0.81393 11.486 134 134 160
-0.57124 1.7996 14.257 75 62 71
13.137 -14.242 6.1878 54 38 45
2.5272 -6.8711 13.092 26 17 18
-2.9632 -10.299 11.308 43 34 39
2.505 -2.293 10.808 75 73 96
-1.5177 -0.40446 14.077 71 65 93
2.2326 -0.64803 11.561 84 62 75
2.0713 -0.87079 11.591 46 45 53
0.75654 -3.6935 11.83 75 28 13
5.0409 -1.4402 9.4997 77 73 98
13.909 -11.985 7.3247 155 151 136
0.30532 -2.8315 12.853 81 36 41
14.283 2.9509 11.426 95 102 130
14.264 2.352 11.321 124 133 161
8.0841 -9.2901 4.755 81 68 62
0.21767 -0.7148 12.825 54 45 69
0.96649 -1.8003 11.954 53 44 58
2.9992 -1.3422 10.839 51 53 74
1.3038 0.86955 12.705 97 85 94
2.9332 0.85435 12.433 49 45 78
13.743 -1.2532 10.262 119 118 123
4.1682 -0.11199 10.554 49 40 57
-0.091811 -2.6112 12.322 73 63 64
5.6796 3.3029 15.702 96 84 89
14.637 2.1601 12.182 122 122 121
3.4309 -3.7853 10.831 38 26 30
0.58394 -2.5764 11.923 33 22 28
3.2045 -0.43734 11.027 84 77 95
4.4308 -8.1129 7.5332 70 58 60
0.71339 0.57772 12.992 102 95 103
0.88572 -3.1766 11.53 64 47 55
4.9382 3.2954 11.374 48 37 56
1.068 -1.4203 12.032 58 48 63
4.0709 2.9667 11.688 39 31 46
1.5823 -3.0103 11.127 61 57 68
2.1348 -0.78937 11.576 24 3 15
3.951 -2.5308 10.691 41 32 53
2.3828 -3.4261 10.84 33 22 27
-5.3095 -12.8 13.444 56 25 29
3.5442 -2.4157 10.986 50 42 66
0.67087 -1.7085 13.242 46 25 23
3.3415 -6.702 12.3 44 41 43
14.036 0.75276 10.991 121 129 128
2.7992 -1.4313 10.924 69 62 74
3.6712 -2.6695 10.813 54 39 70
2.4484 -3.3322 10.445 72 52 55
12.536 1.4976 8.4113 49 35 41
2.8678 -0.9167 12.291 60 51 70
1.1453 -1.6027 11.9 45 29 38
1.9892 -2.6175 11 82 69 76
2.1067 -11.197 7.9386 45 24 29
3.7082 -1.0547 10.508 60 56 70
4.5889 -14.324 9.4065 122 117 114
3.0943 -6.8235 12.728 30 21 18
3.832 -6.5848 14.08 27 19 20
3.6764 0.18675 10.962 62 49 66
-3.6333 3.4097 19.318 86 85 93
1.9696 -0.26809 11.86 87 76 84
0.77712 -0.3903 12.582 93 90 109
7.14 2.7024 16.969 60 27 24
8.0682 4.2706 11.466 75 64 68
0.29154 -2.0146 12.725 78 43 54
1.3023 -0.19387 12.307 33 28 32
2.4026 2.7865 18.793 133 110 106
3.4395 -12.764 7.0507 47 34 25
2.922 -1.6522 10.781 76 60 73
4.5289 -0.86831 10.154 40 29 43
2.1465 2.9417 12.977 60 54 68
2.0765 -3.486 10.643 61 56 63
0.35301 -3.1465 12.706 87 47 45
3.4731 -0.75559 10.778 86 79 113
1.3414 -0.93106 12.03 92 91 105
3.1943 -1.4715 10.673 45 36 53
4.0143 -0.21975 10.622 74 69 91
3.3661 -2.0606 10.801 44 35 56
-2.4253 -2.0386 14.082 53 50 59
3.2134 0.18761 12.044 86 91 113
4.0685 -0.0042778 10.633 53 43 51
0.99592 2.2108 20.591 76 50 56
1.3957 -2.6691 11.372 56 38 46
-0.17447 3.3932 14.884 31 23 20
1.2293 -5.843 13.219 27 19 17
1.6253 -2.825 11.15 39 20 26
1.8223 -0.39862 11.913 52 36 49
1.9165 -3.7402 10.649 96 81 84
3.5865 -0.56559 10.766 121 121 158
4.9095 -0.62103 10.366 32 21 25
5.4899 -13.717 7.0933 118 106 92
13.908 -3.0634 10.366 121 125 124
2.3585 -2.8719 10.686 62 51 57
5.1546 -6.7532 7.5455 94 84 93
1.814 -0.27857 11.948 96 88 86
1.2981 -3.1449 11.256 60 44 50
10.479 -14.267 6.6653 149 133 110
3.1208 -1.9465 10.552 47 39 55
10.421 -14.181 6.4083 136 130 106
1.9387 3.747 13.54 51 43 63
1.9347 3.096 17.927 113 102 94
1.6724 -6.0258 13.524 27 19 17
-3.6674 1.6524 18.832 55 24 34
5.7455 3.6996 14.348 35 25 33
2.2182 1.1548 12.211 48 37 45
0.5248 -3.3997 11.66 32 21 21
2.2499 -0.56244 11.591 84 86 107
1.2576 -1.59 12.811 42 22 20
1.5727 -0.82835 11.922 95 72 79
3.6564 -0.23882 10.804 63 50 67
2.7416 -2.0068 10.761 20 13 31
2.7466 -0.59688 11.254 81 75 89
1.9492 -5.2461 10.097 63 49 48
1.1394 -1.5813 11.913 57 48 63
11.623 0.23961 6.6647 84 84 92
-5.1115 -11.98 13.876 74 73 71
1.8956 -4.4668 10.401 55 31 35
1.4717 -0.94133 11.949 86 73 80
2.499 -2.6056 10.695 122 118 123
2.3398 -3.1132 10.599 129 122 126
10.924 1.1277 8.4786 34 26 29
-0.11332 -8.9103 10.035 45 36 41
-4.8484 -5.22 15.22 38 22 22
0.5527 1.7179 13.513 88 83 90
3.1208 -1.3025 10.769 57 53 70
2.0078 4.2778 14.264 36 32 47
0.64362 -1.1323 12.408 52 47 69
-0.5428 1.3588 14.098 77 71 85
2.0978 4.3771 13.876 50 47 67
3.2489 0.1511 11.738 31 26 26
5.9723 3.9169 13.511 43 30 20
1.6796 -0.70169 11.88 56 52 60
3.6328 2.9799 17.605 116 104 108
0.31087 -12.905 9.2041 43 32 40
1.7057 3.9626 15.101 43 35 56
15.552 -4.3435 4.9251 90 90 91
3.0744 0.79424 11.539 54 37 43
5.7871 4.1523 12.78 49 36 26
-2.61 3.1105 21.176 72 68 68
-2.5239 4.5482 20.626 89 84 90
-0.071067 2.8634 19.497 128 117 116
0.95104 -2.1697 11.835 55 34 46
2.4321 -2.6811 10.686 121 109 112
2.2513 -0.87168 11.484 150 140 149
0.83298 -1.7061 12.819 49 25 19
1.6191 -5.301 10.283 61 42 39
2.607 -0.13575 11.501 41 26 33
-4.6761 -5.5344 14.136 40 26 23
1.1115 -1.646 11.918 75 74 72
0.83554 -1.3345 12.214 63 51 63
14.535 -23.527 13.776 180 153 113
8.9024 2.7887 15.938 60 27 24
3.5199 2.2658 19.168 68 36 47
17.001 -7.4958 7.139 136 135 134
-3.8183 -6.264 15.774 46 36 26
21.477 -0.16957 2.6944 30 20 21
12.812 3.6009 9.121 34 24 23
1.3987 -0.55424 12.133 83 83 83
9.7997 4.5757 9.7293 55 42 39
2.9756 3.2974 13.528 53 29 30
2.0942 -2.6144 10.953 57 38 44
4.6434 3.9686 13.905 33 24 27
2.4905 -7.0539 12.954 25 19 17
3.8203 -2.6598 10.726 44 35 52
2.1733 0.387 11.978 72 65 65
1.2973 -2.833 11.38 66 60 64
2.3141 -0.51022 11.566 56 52 76
3.4343 -6.2413 14.038 30 20 19
-3.1018 -1.3939 19.218 65 29 42
0.67661 -1.7073 13.361 43 23 22
1.2391 -0.15252 12.367 79 69 68
2.7113 -0.77075 12.273 32 22 21
2.926 3.3195 17.436 73 72 114
3.9844 2.4584 18.824 69 35 30
-0.010168 -0.72036 12.973 37 32 52
1.1062 -0.46141 12.35 139 129 137
-3.8707 3.2279 18.842 77 78 83
2.2669 3.2937 17.124 114 99 104
11.719 1.2 6.9287 79 77 83
1.2196 -0.57918 12.239 56 45 53
3.819 -0.60788 10.593 58 49 66
2.9948 2.9653 18.614 79 76 123
5.9733 4.0824 12.936 48 31 26
13.609 -4.0409 9.7393 125 128 128
24.344 6.04 20.607 137 142 182
13.847 -1.0008 10.482 122 121 127
14.842 2.2487 12.397 73 64 74
-0.091777 -2.7249 12.306 44 29 29
3.2941 -5.1917 9.2573 69 48 53
0.85367 -3.1018 12.408 90 41 27
2.7341 -6.5187 12.485 38 32 21
-1.5278 0.51092 14.425 48 43 63
-5.3434 -6.2318 14.357 32 22 20
7.7255 -8.72 5.1852 92 73 75
0.88408 -5.8906 10.543 43 22 17
5.2316 2.9068 13.855 41 23 23
0.46815 -0.45807 12.737 30 25 33
3.2359 -0.76887 10.893 53 46 62
-1.0309 2.7138 15.506 39 36 24
2.245 -11.239 7.8523 62 48 44
-3.1204 -6.7555 18.008 39 29 27
0.85932 -2.6708 12.156 43 24 18
5.3991 2.1988 17.996 42 29 39
0.99168 -2.268 11.769 69 58 69
3.9639 0.78286 10.989 68 63 83
-0.50927 -2.4769 12.66 61 43 56
0.89539 -1.7449 12.008 23 11 23
1.0529 -1.7186 11.931 48 39 47
3.479 -1.3932 10.536 75 71 101
3.6203 2.9785 17.615 129 117 121
3.0497 0.054131 11.43 32 26 26
1.6161 0.86236 12.506 68 57 65
-2.9233 3.744 20.703 88 84 90
3.2473 -1.9878 10.879 31 21 22
0.89578 -3.4215 11.512 44 24 15
3.8702 -1.7069 10.159 54 47 65
3.1439 -1.2278 10.802 11 11 35
13.91 12.013 28.963 140 144 181
2.8711 -1.8112 10.746 58 54 72
0.66041 -0.38158 12.669 78 72 89
4.9144 -13.929 8.0032 81 31 35
12.187 -13.869 4.7889 138 131 112
9.9706 3.0948 14.678 79 63 50
1.7825 -5.8872 10.472 42 31 35
6.8226 1.89 12.524 41 37 30
1.8829 -2.6698 11.046 20 13 21
3.2556 3.9455 14.91 30 20 21
4.0833 3.9659 14.143 35 26 29
1.3098 -3.0117 11.308 67 53 55
3.1222 -1.418 10.73 72 69 89
-4.0749 -3.7646 14.432 48 30 34
2.4086 -2.5477 10.774 74 62 67
-0.79822 0.31745 13.898 57 54 75
0.84234 -0.59048 12.486 106 103 125
0.17942 -6.5081 11.747 39 30 15
2.5575 -6.2167 14.363 33 30 15
3.301 -14.673 11.111 23 22 12
11.113 3.0509 14.361 81 64 51
1.3782 -3.3429 11.132 60 54 64
3.0458 0.02839 11.416 29 22 23
14.816 2.5909 13.058 42 28 43
2.555 4.165 14.433 40 36 53
2.0414 -3.61 10.611 47 34 43
4.0746 -1.8623 9.9731 72 65 81
0.82399 -2.6568 11.814 53 24 17
1.349 2.9179 13.458 54 32 53
2.719 -0.88094 11.178 47 35 45
14.623 0.72943 12.335 75 68 60
2.1321 -7.8803 12.22 26 19 17
5.9007 -2.2341 8.6207 67 66 80
1.0117 -6.3074 10.808 50 31 39
0.82571 -4.2014 11.187 69 53 54
12.122 -12.749 4.1198 137 129 117
11.594 3.2758 13.467 76 57 53
3.9328 -7.1122 8.1986 94 86 84
4.7443 0.22494 10.308 39 27 36
0.4072 -0.59429 12.74 86 79 100
1.2549 -1.4354 11.916 65 52 67
2.6535 -2.5863 10.605 99 89 98
1.7281 -3.6989 10.775 56 38 42
2.0204 -3.7939 10.559 59 42 48
5.8869 -1.0402 9.0553 55 51 68
4.3021 4.0654 13.759 45 38 54
1.2206 0.88727 12.761 62 49 53
0.76603 3.2398 14.019 53 43 67
7.4135 -14.798 8.6271 68 62 59
4.8185 4.1512 13.25 48 41 61
4.6275 4.0233 13.674 37 27 30
1.4503 -0.52845 12.082 48 35 45
1.4908 -3.9064 10.865 84 70 71
4.4446 -7.2834 15.854 46 45 24
-2.1546 -4.6653 12.89 62 45 53
0.60456 -3.7998 12.202 81 30 29
3.0924 -0.067989 12.214 63 46 52
-2.8685 4.2574 20.924 79 73 75
7.6757 -14.693 9.2355 133 128 104
3.6321 -2.1653 10.613 32 25 25
1.0207 -2.6535 12.153 43 22 17
-3.8445 3.9603 17.381 60 40 46
13.829 -22.61 10.972 181 152 107
2.37 -0.8383 11.42 95 95 117
2.5698 4.3681 13.725 51 47 72
2.7011 -3.2593 10.324 103 92 96
1.92 3.114 17.867 120 106 105
0.86239 -0.53039 12.482 31 16 23
3.3511 -2.4991 10.2 44 36 51
15.354 -3.302 4.9989 53 51 56
1.1716 -1.6051 12.664 41 23 19
10.66 3.7533 13.07 64 31 48
2.136 -2.8107 10.836 71 64 70
1.474 -3.2256 11.129 112 91 98
-1.6466 0.40574 14.474 85 85 113
4.1296 -2.2975 9.7935 34 27 33
3.483 3.9893 14.281 60 38 30
4.5621 -7.1457 14.483 32 27 24
-4.2479 -5.986 16.139 47 23 26
20.525 7.0073 23.25 109 105 119
3.4244 3.8706 14.709 63 69 129
1.0346 -3.0256 11.476 55 49 53
5.7019 -0.4045 10.351 59 50 77
5.2244 3.3004 16.492 96 96 132
1.3841 0.037548 12.335 44 29 48
1.0279 -3.9569 11.153 52 39 40
2.304 -3.0535 10.656 79 68 73
16.005 -5.6991 5.5676 111 109 110
3.996 -6.5796 16.374 39 38 24
4.8181 -1.0432 10.333 29 23 23
2.8218 -4.6454 9.7513 94 84 84
1.0949 -3.1428 11.393 64 37 50
3.3673 4.3384 13.178 41 32 58
6.179 1.7034 15.05 74 73 69
-0.91297 -13.89 10.489 66 26 27
2.8386 -0.15976 11.357 54 48 58
3.2922 -2.642 11.063 55 42 74
2.7407 -2.301 10.648 51 42 58
10.122 -14.679 8.1184 140 133 111
-1.9742 -2.8908 13.45 72 64 83
0.81791 1.0511 13.102 65 42 48
0.97891 -3.0317 12.045 31 19 17
1.8665 -2.6354 11.071 82 68 81
5.3977 4.0279 13.491 29 20 18
4.0756 -5.9134 8.5165 96 86 95
0.6302 -4.0698 11.997 80 25 18
0.92949 -0.22273 12.558 73 70 79
-5.1556 -10.532 13.992 72 63 69
2.9617 -1.9433 10.647 53 38 54
3.4884 3.6336 12.492 45 34 45
2.364 3.869 13.351 49 41 52
-3.3848 -4.3544 18.013 77 76 82
0.075503 9.2447 18.467 76 28 5
3.3181 -6.216 15.876 39 35 14
6.3011 -0.91679 8.8266 64 60 85
1.1319 -1.8729 11.824 68 58 75
2.0892 1.6859 12.498 52 50 63
-0.41677 -13.781 9.9121 64 25 26
2.7904 -0.50328 11.682 39 28 34
3.3143 -2.8659 10.965 51 44 61
2.6347 -0.50955 11.89 28 23 20
3.6043 -2.4429 10.942 48 43 65
3.3117 -6.7155 12.836 30 25 20
0.93774 -4.5605 10.992 63 49 48
1.4262 -3.2796 11.102 75 64 68
0.82742 -2.7841 11.729 67 25 16
1.6397 -2.8734 11.129 7 0 4
2.9207 -1.7511 10.735 40 29 46
1.443 -3.5431 11.023 73 56 62
0.62511 -2.911 11.771 31 21 15
-1.8072 -1.9895 13.703 72 70 81
2.8826 -0.88082 11.078 57 43 60
0.28148 -12.681 9.1504 39 34 37
3.4725 0.29352 11.125 51 37 45
2.4921 4.2761 14.087 44 39 62
12.744 3.0346 8.9418 35 25 23
-4.7366 -5.0252 15.439 37 22 19
3.6824 -2.8096 10.755 53 44 73
2.098 -3.0374 10.786 82 69 76
1.7827 -4.1274 10.6 89 74 71
3.3019 3.8218 15.28 32 21 24
0.56072 -5.9213 14.213 27 18 18
4.463 0.17624 10.444 69 65 84
-1.0793 -0.19756 13.868 71 55 81
2.6873 -1.0886 11.129 91 93 120
5.7538 3.3759 15.431 104 94 95
1.4256 -0.73778 12.033 66 55 71
8.7819 -14.706 8.7753 143 128 110
-3.2146 -7.2334 17.761 43 31 35
13.958 -2.3123 10.534 124 125 127
4.4899 -7.499 13.457 31 23 23
2.4768 -0.37886 12.033 29 19 22
1.6922 -0.56833 11.926 58 48 59
3.1768 -2.7934 11.078 59 49 79
3.3424 -2.3846 10.732 35 23 27
1.6607 0.41812 12.302 81 67 67
3.007 -6.2655 13.842 24 20 17
0.53845 -5.6516 10.993 44 24 23
3.5723 -0.02167 10.933 84 73 82
2.7675 -1.4219 10.968 64 53 71
16.283 -4.6936 6.1683 85 85 87
-3.4313 -1.8123 16.265 38 33 17
2.8312 -1.8799 10.755 54 41 60
13.774 -2.6316 10.172 123 124 127
1.1843 0.85826 12.788 65 53 64
17.349 -8.6158 7.6629 132 126 123
2.891 -6.9723 12.644 28 20 17
2.634 -0.87152 11.246 52 49 58
1.9017 -2.7682 10.992 76 70 82
3.6401 -2.9469 10.725 22 15 33
6.269 2.7861 17.187 87 59 55
-1.0309 -13.96 10.768 69 25 27
3.5319 -0.075443 11.622 35 24 32
2.8648 -2.5664 10.465 37 25 34
0.50358 -3.3668 11.682 34 23 18
2.8173 -0.39977 11.274 56 45 59
13.661 -1.0716 10.139 122 123 125
2.9492 4.0602 14.548 39 28 35
0.94932 -1.668 13.134 50 25 21
3.0384 -6.8053 12.336 29 20 18
3.5049 -3.1018 10.754 53 49 74
5.0788 -7.5177 13.869 19 18 14
1.3293 1.7776 13.034 76 68 81
1.0568 0.28995 12.663 85 75 83
8.6779 3.6277 13.406 87 66 73
1.3264 -0.07112 12.36 116 96 101
1.108 -2.2283 11.721 62 50 65
1.9272 -0.87125 11.684 68 57 63
2.0214 3.9062 15.146 69 43 41
0.5809 -0.7617 12.575 59 49 60
-2.9732 -2.9759 19.074 75 73 79
3.0498 -2.8156 10.932 32 22 21
5.7255 4.1895 12.683 50 32 25
4.1032 -0.30134 10.519 59 53 81
4.7523 -0.83059 10.448 31 20 24
-1.5758 -9.8495 10.595 53 36 42
-3.6498 -8.6632 16.786 61 52 47
6.9342 -13.045 4.5391 37 22 22
4.9648 -1.2252 10.869 30 21 21
-4.9732 -6.2747 14.884 62 45 43
1.4513 -0.73472 12.003 54 41 51
3.0206 -3.1068 10.19 45 36 41
7.3054 3.6751 10.039 40 25 24
0.61954 2.6962 19.803 126 114 111
13.366 -4.3325 9.2803 105 102 98
1.9776 -5.9897 16.962 50 54 22
2.9258 -0.98722 11.02 81 85 110
0.54803 0.080809 12.902 82 70 80
2.559 3.4015 16.64 118 107 111
3.3741 -1.6155 10.506 41 24 42
0.7002 -2.8214 12.6 66 27 34
2.6832 -1.1968 11.091 68 63 82
1.3613 -6.1053 13.091 25 18 18
3.1054 -1.9218 10.562 58 46 60
5.5973 1.628 13.342 39 35 32
19.834 8.6931 20.801 54 39 38
2.6722 -0.74725 11.262 67 58 77
3.3542 0.049305 11.119 74 68 91
-1.3358 -13.778 10.343 58 27 25
-0.27411 -3.46 12.991 72 36 36
3.4674 -0.14818 10.963 84 84 104
1.6953 -2.7465 11.146 60 46 61
2.9261 -1.0037 11.019 82 83 109
0.82633 -2.1312 11.912 48 38 50
1.8858 -5.932 13.304 28 19 17
-2.9305 0.4645 15.351 52 44 65
1.8289 -0.51118 11.876 76 69 77
4.4934 -2.6912 10.485 31 22 25
6.9257 -8.4434 5.8084 84 69 76
2.9066 -3.6936 10.022 99 72 83
-3.2858 -4.4035 13.721 52 37 42
1.5654 -5.7312 13.742 29 19 18
1.8342 -13.979 9.5519 118 114 103
0.921 -5.07 15.907 48 47 45
0.6183 -2.1202 12.493 86 60 75
4.4836 1.3444 10.842 58 53 73
1.959 4.0088 14.838 77 51 42
10.135 -13.83 5.4081 144 132 115
2.8078 -1.157 11.022 57 45 53
12.749 -21.921 9.1124 170 140 95
-3.0462 -1.8422 17.391 38 34 22
2.3609 -2.9691 10.639 81 65 72
2.9687 -2.5187 10.444 56 47 50
4.6855 4.0994 13.482 43 41 53
4.8204 -0.90084 10.26 40 29 43
0.59154 -1.3505 12.373 54 50 71
2.4993 -0.41335 11.473 49 28 43
9.6004 3.7996 12.502 90 83 77
1.7069 0.0063857 12.113 32 18 31
0.15574 3.1004 18.608 52 37 56
-2.5523 3.5898 21.373 72 67 67
0.50593 -2.933 11.85 41 27 28
0.45716 1.2686 13.413 46 36 44
0.4064 -1.7976 12.893 50 26 20
2.645 -2.634 10.59 58 47 62
1.4522 -3.9274 10.881 140 138 154
3.2059 -5.4102 9.3482 30 21 19
6.7264 -13.969 7.3671 138 129 118
0.4782 -1.0609 12.546 68 58 83
3.1816 -10.484 7.4933 82 73 78
1.8339 -2.6593 11.095 52 42 48
2.4621 -3.8245 10.252 71 63 63
1.0264 -2.4215 11.695 69 66 83
-3.2665 -2.8209 14.331 58 48 56
0.88652 -0.050123 12.643 145 135 137
-1.722 -13.969 11.13 92 91 87
2.4287 -0.90482 11.36 61 59 80
6.3101 2.8445 16.984 95 68 57
1.9602 -3.4391 10.731 94 90 91
2.8455 -1.7106 10.805 66 54 84
-3.4731 -4.5115 15.986 31 27 15
19.825 -23.674 11.804 185 157 118
3.0836 -2.3271 10.525 27 18 19
2.79 -2.7265 10.459 58 48 56
3.9673 -1.4966 10.161 66 61 84
3.2613 -2.2216 10.851 28 19 20
3.2658 -2.167 10.802 30 20 21
-4.8164 -11.405 14.46 79 77 80
-3.2181 -1.698 18.931 67 27 41
0.50356 -5.6657 14.119 24 20 17
3.8027 -2.7962 10.684 25 18 36
1.2063 -1.5801 12.726 42 23 21
-4.9906 -7.7065 14.638 34 25 21
3.9868 -1.6805 10.091 52 33 47
14.195 0.076843 11.206 127 130 127
6.8291 3.223 15.897 87 58 78
1.868 -5.4707 10.363 30 20 19
13.394 -1.0951 9.6669 110 107 113
5.017 -0.25345 10.778 35 24 29
2.8533 -3.9334 9.9755 52 37 40
1.0452 0.90976 12.907 78 59 65
1.1831 -3.0288 11.374 78 64 71
2.8862 -2.1626 10.625 54 49 71
3.6838 -0.020799 11.605 29 19 27
2.6214 -0.62482 12.12 37 32 35
-2.2933 -1.7088 14.105 76 72 89
1.7277 -3.0686 11.006 75 58 61
12.579 -14.531 5.784 68 65 56
3.4008 -6.8666 13.504 28 19 20
2.3406 2.4109 19.793 74 45 44
4.656 4.0008 13.748 34 24 27
-2.8063 -1.543 19.722 49 38 43
-1.0186 -8.8253 10.634 48 35 44
6.544 -10.362 5.4112 102 93 94
2.5844 -0.93181 11.242 98 100 112
16.281 -11.95 7.1847 117 107 99
1.6935 -0.85574 11.825 39 22 31
0.89798 -2.5372 11.75 47 36 42
14.463 0.4589 11.707 125 125 123
3.2804 -2.4216 10.28 39 28 34
2.6964 -1.2106 11.076 57 45 66
4.4037 -0.057707 10.404 74 67 83
4.4757 -1.037 10.01 64 48 75
1.7486 -6.0256 10.697 31 22 24
12.275 -22.176 10.212 174 147 104
6.5979 -1.0909 8.5552 80 71 98
2.9074 -2.7493 10.695 31 21 22
4.673 -0.039377 10.259 52 38 53
11.341 0.84643 9.1144 36 26 37
2.7369 -5.0891 9.6423 69 53 58
-3.0188 0.18021 19.734 111 109 122
1.9346 -3.556 10.705 79 74 80
5.6332 4.0224 13.425 28 19 20
1.2233 -4.2403 10.92 68 55 59
2.8685 -0.2162 11.316 54 46 67
-1.8751 4.3229 21.051 50 24 33
-1.5962 -0.6863 14.028 50 45 67
-2.9155 -2.0495 19.409 44 24 35
2.5084 4.3107 13.928 52 54 77
-6.1272 12.532 36.631 147 161 207
1.2048 -2.4264 11.592 53 42 48
0.41666 -3.4265 11.733 34 23 19
1.4163 -2.4836 11.427 46 34 48
-4.6621 -9.1966 12.848 41 30 31
1.5322 0.10025 12.273 98 93 113
1.3642 3.0547 18.903 71 67 112
3.3235 3.3972 16.346 113 104 105
0.99722 -1.4145 12.083 90 89 107
-0.23222 -2.5792 12.44 48 32 35
-3.3711 -7.796 14.367 28 19 16
-2.1778 2.01 21 68 55 73
1.1938 -1.0224 12.094 73 57 72
11.561 3.3514 13.216 115 104 110
14.432 -8.0882 2.7149 119 116 119
2.4168 -2.6845 10.711 86 75 76
0.36734 -5.6368 14.6 27 18 19
1.0953 -1.9741 11.824 34 26 36
-5.2273 -10.278 13.895 67 58 62
1.2537 -0.41107 12.271 67 54 64
0.69835 -4.0842 11.981 98 67 72
1.8695 -3.7704 10.665 45 28 34
4.9886 -0.30471 10.659 35 26 28
-4.8357 -13.747 11.678 42 24 21
-1.3632 -14.106 11.392 104 94 98
0.56542 -2.9874 11.789 35 25 25
2.8328 -1.2359 10.988 91 80 86
4.6617 2.8958 14.141 49 24 30
4.3929 -8.8638 7.299 71 60 63
4.5541 -9.102 12.507 29 23 19
1.0816 -0.5019 12.355 83 70 77
1.1981 -2.867 11.422 64 62 75
3.6653 2.8108 18.306 73 31 41
0.95644 -0.90928 12.283 67 61 72
3.5744 0.44161 11.826 30 20 19
1.9328 -0.48413 11.822 81 79 92
3.2341 -5.5635 9.6546 58 44 65
3.2386 -2.9521 10.106 55 44 48
3.4894 0.57524 11.205 51 38 48
3.8907 1.5385 11.273 52 49 63
1.2867 -3.3305 11.196 78 69 74
1.4527 -3.1341 11.166 79 69 74
1.0615 -0.55646 12.35 65 55 66
-3.7261 5.1028 19.279 58 25 36
7.0031 1.6238 13.76 33 25 24
2.1066 -0.56172 11.69 101 95 98
3.1197 -1.4876 10.71 62 48 73
6.1534 -5.9743 7.1697 105 104 108
5.4154 -1.4344 9.2452 65 66 84
5.1766 2.8283 14.008 32 20 22
1.2635 -3.0914 11.302 61 46 47
15.917 -9.1465 5.1933 141 143 142
-2.7604 4.9802 19.204 60 24 34
-0.1469 3.1565 14.588 40 29 35
3.4764 -1.8285 10.344 49 37 47
-0.73953 3.2502 18.493 128 119 124
14.311 0.37662 11.44 125 128 129
4.1633 -6.5204 14.762 45 49 13
-2.0628 0.026435 14.608 61 57 84
3.4794 -0.078341 11.658 30 21 24
1.2012 -2.2052 11.657 53 46 53
-3.3156 -2.7911 18.486 103 106 115
17.87 -21.802 6.3205 185 153 106
0.14927 -6.5329 11.91 46 36 17
1.5346 -0.22212 12.154 58 48 63
3.7701 -1.297 10.385 46 41 62
3.7907 -2.1757 10.738 31 21 21
2.2552 0.71208 12.041 74 68 79
1.1754 -1.0041 12.119 68 55 68
0.75526 0.60861 12.977 95 91 92
5.2175 2.9125 17.356 60 24 36
0.77612 -1.1487 12.312 47 42 62
2.8173 -2.2504 10.642 73 66 80
-3.653 1.4896 16.245 58 54 77
13.884 -2.6995 10.364 121 126 127
20.947 7.7994 23.291 138 149 179
1.0973 -1.4028 12.009 50 47 59
1.0784 -1.6567 12.837 45 25 19
6.6376 3.738 13.867 56 36 38
2.8629 -4.1451 9.9039 82 72 73
1.6127 3.2738 17.471 105 91 90
11.756 2.828 14.285 66 37 26
0.023018 3.0691 18.804 121 109 108
3.3167 -2.4301 10.255 43 28 35
-0.65063 -0.068017 13.639 63 63 87
3.9014 -3.9163 9.3285 73 78 97
1.8705 -0.57504 11.828 90 85 92
2.8348 -7.0569 12.23 28 19 17
2.6092 -0.23886 11.469 50 44 56
11.385 3.5155 12.729 97 86 73
9.3132 -8.9861 4.3906 40 35 24
1.059 -2.4133 11.682 67 56 67
4.6275 -2.7347 10.662 56 49 81
2.0257 -2.7301 10.943 46 35 39
2.3869 -0.62619 11.484 47 42 64
3.2146 -1.3553 10.711 70 69 91
1.1163 -2.4296 11.645 101 81 80
-4.0212 3.9592 17.756 66 44 1
2.8708 -2.1722 10.621 38 30 41
1.8647 -2.917 10.968 84 69 74
1.005 -8.9609 9.3273 84 69 76
3.4235 -4.8556 9.2976 95 84 82
1.2723 -2.7643 11.416 84 82 87
2.5229 -3.4507 11.08 34 24 24
4.7869 4.0529 12.643 30 24 24
2.3183 -0.31009 11.795 37 28 42
1.4409 -5.2977 10.391 62 42 43
1.1816 -0.10899 12.422 81 62 68
5.0573 -13.932 7.9905 124 119 116
14.757 -12.592 8.7531 156 146 133
14.272 0.98684 11.428 126 130 131
6.1986 -1.9611 8.51 61 48 78
0.17715 -3.981 12.089 50 23 14
3.0119 -2.7656 10.872 31 22 21
0.90759 -3.0872 11.542 61 44 54
22.746 6.7198 19.059 151 138 122
1.6792 -2.9058 11.101 76 59 67
1.3014 -1.3757 11.889 43 35 46
-0.63614 -7.2795 13.839 25 19 17
0.86586 1.7859 13.334 87 83 99
-0.9187 0.52126 14.04 72 67 87
2.2097 -0.58014 11.606 58 48 59
1.1041 0.59746 12.747 91 84 92
-5.0037 -10.029 14.307 60 45 50
1.8899 -3.6977 10.677 54 43 59
4.8777 -1.0948 10.583 31 22 23
15.344 -9.1407 4.0266 127 121 123
1.107 -1.6648 12.686 45 24 17
1.4792 -4.4535 10.685 92 80 84
3.0368 -0.45013 11.942 61 46 71
-0.14668 -6.6343 13.781 28 20 18
3.0919 -2.6957 11.173 53 48 69
2.034 -2.6449 10.969 88 61 76
5.2887 -13.674 7.0388 126 123 106
3.9021 4.0653 13.919 49 40 64
10.967 -13.887 5.2511 147 142 122
2.8029 -1.3583 10.958 55 43 63
2.5281 -1.0104 11.264 16 13 30
2.3605 -2.4303 10.853 74 69 76
3.1228 -2.213 10.445 43 36 48
-3.4595 2.4503 16.523 56 45 62
2.9895 -1.5738 10.775 62 57 79
10.785 3.8814 11.758 93 84 82
-2.0385 -13.649 10.255 76 72 71
5.0281 -2.9649 11.206 90 92 130
2.815 3.1954 18.054 70 64 109
21.836 -23.423 10.034 181 156 112
2.4327 -2.4438 10.81 91 79 89
3.0073 -6.9376 13.012 25 18 18
-3.7957 1.0779 16.139 43 33 44
2.9472 0.85369 12.533 50 43 76
2.1075 -0.46111 11.71 72 65 86
2.4808 -3.3506 10.419 57 50 53
2.5769 -0.70703 11.338 62 54 70
0.8342 -4.3887 12.296 88 46 47
3.437 -1.3863 10.56 95 94 112
-4.2093 -11.482 15.499 81 79 84
9.0301 -14.282 7.3513 144 137 118
5.532 -0.53018 10.397 35 25 32
0.64598 -0.75803 12.535 60 52 75
-4.5355 -11.583 14.919 86 82 83
11.809 3.6018 12.281 98 86 84
0.57097 -1.8457 12.588 81 52 64
3.7279 -2.8619 10.705 52 47 79
-3.22 -5.9247 17.999 45 24 31
-3.1019 -2.7388 18.889 95 96 101
3.228 -1.3812 10.7 90 80 86
1.6712 -3.3329 10.931 90 75 80
0.53661 -0.28902 12.769 38 23 35
0.19069 0.50331 13.298 74 63 77
0.70835 -1.3608 12.297 64 50 67
3.284 -2.3841 10.291 39 28 32
4.5868 -2.8708 10.702 44 34 61
0.83876 -0.52548 12.503 42 34 39
2.8475 -4.1024 9.9306 71 59 63
12.928 -1.5802 8.792 77 71 73
6.9415 -13.855 6.9139 130 120 106
-0.23104 -1.9957 12.647 40 28 32
2.7576 -3.2957 10.264 59 50 51
-5.0541 -10.72 14.138 76 68 71
1.9662 3.5301 13.409 48 34 47
4.5019 -6.8118 16.691 69 76 43
17.179 -2.612 2.8513 32 23 24
2.4643 -2.8731 10.619 106 111 130
4.6306 3.8386 14.447 27 19 17
6.268 4.1518 12.597 47 35 30
2.8713 -1.6121 10.836 61 50 56
3.0413 2.5681 19.186 99 72 68
15.593 -5.931 4.8269 109 109 110
2.0087 -4.0135 10.484 78 65 74
3.7934 -6.7201 16.672 35 25 29
17.647 -5.5397 8.5366 95 98 99
1.4644 -1.0268 11.918 49 32 40
3.2054 -13.517 7.4034 76 27 29
-1.3043 0.51078 14.286 96 92 118
14.353 -1.0961 11.359 125 125 127
1.6805 -14.217 10.353 138 132 128
4.6106 -13.15 5.7147 43 30 30
12.288 2.7881 8.0699 50 40 43
1.4318 0.22651 12.377 27 10 23
13.041 -3.28 8.821 90 91 93
-1.9923 -2.9154 13.445 51 42 54
-3.558 -5.7758 17.412 66 24 36
14.671 -0.81569 12.156 89 79 89
5.0527 -2.9384 11.202 97 95 118
2.5666 -4.082 10.108 74 62 66
2.8022 -1.2401 11.003 71 64 79
-1.4885 1.6016 14.804 70 66 83
1.6187 0.1226 12.222 95 81 99
1.3459 -0.068677 12.334 54 39 43
0.28806 -4.0844 12.191 37 22 15
1.2061 -2.6857 11.491 61 43 51
1.5324 -2.8842 11.196 59 42 50
-0.70235 -1.9265 12.97 35 24 30
2.5831 -7.1047 15.265 27 18 18
2.1663 -5.8781 14.038 35 29 23
0.68969 0.10073 12.815 30 28 41
11.985 -3.5803 8.2094 42 30 42
2.5914 -2.312 10.746 49 34 46
1.1904 -1.9779 12.476 86 67 87
4.6353 -2.8344 10.787 74 73 113
4.9762 3.4324 15.564 90 84 88
0.97955 -1.9727 11.897 44 35 47
2.6828 -1.2313 11.088 54 48 65
1.5445 1.7561 12.876 61 56 63
8.1282 -13.683 5.8802 126 120 104
5.5117 -14.562 9.7929 128 129 123
5.4743 3.1002 17.186 97 98 132
-1.0195 -5.8737 11.972 32 20 22
5.7035 3.2628 12.084 30 25 14
1.2781 -2.4394 11.533 101 87 105
10.573 4.0184 11.361 83 68 66
2.8274 -0.74564 11.148 46 42 56
16.762 2.905 10.831 39 27 31
0.96731 -1.9809 11.894 46 40 57
-2.867 -1.1802 19.696 52 28 40
-3.615 -2.573 15.642 38 37 16
0.87472 -2.4293 11.785 55 43 47
-2.7836 -3.6747 16.559 41 41 33
2.1798 -0.69693 11.578 96 92 106
-2.7568 -3.6271 13.68 69 52 58
5.1832 1.3901 10.397 66 54 64
0.21388 -4.0255 12.185 70 30 18
2.0775 -2.9393 10.847 94 74 83
4.0306 -7.3117 15.968 29 24 20
1.6418 -3.6742 10.836 23 12 19
2.3719 -2.9572 10.631 64 57 58
2.6493 -3.1495 10.401 117 101 101
1.3009 4.2751 14.225 51 46 69
-0.2028 -3.3558 12.981 78 37 31
5.3974 3.8861 13.868 32 22 23
5.8687 -7.9231 6.6575 98 86 90
4.5422 -2.7593 10.383 35 25 23
2.2306 -3.6378 10.481 46 36 41
2.7783 -1.3286 10.996 66 45 60
0.93263 -1.7856 12.377 81 61 72
5.6457 -0.22272 10.456 55 42 64
3.8153 -0.3769 10.668 97 97 118
1.7441 -3.1345 10.975 61 51 64
1.5926 -0.49106 12.026 38 32 43
2.8133 2.7954 18.717 96 58 72
2.4518 -3.9614 10.219 50 26 39
-1.1447 -0.37749 13.833 67 62 90
3.4494 0.0038888 11.033 63 55 70
3.4267 -0.13124 10.992 58 46 66
3.4497 -1.9858 10.774 43 34 53
1.1366 -3.3583 11.285 73 58 60
1.9982 -5.9044 13.656 31 31 19
4.7223 -4.8188 8.4861 89 76 83
9.8793 3.6354 12.945 113 106 111
20.327 8.4279 20.415 57 39 40
3.3607 -1.4997 10.551 55 48 71
2.9008 0.71333 12.855 49 42 76
7.0938 -1.7099 7.9785 64 61 88
0.98142 -3.0223 11.947 37 21 13
2.7633 -0.706 11.936 31 21 22
14.569 -23.072 12.205 181 155 110
1.495 -4.3443 10.705 66 49 56
2.2 -6.6173 9.4854 39 26 20
1.3736 -0.042176 12.32 47 37 45
0.94356 -4.4065 11.053 65 59 63
2.7602 -0.77856 11.191 79 75 89
1.0442 1.1698 12.998 62 51 59
12.064 2.7147 7.6587 51 42 50
4.4247 -1.2688 9.9604 71 65 91
3.1349 -4.6476 9.5435 81 66 73
4.9751 -8.7947 6.9379 99 88 92
6.0063 3.3009 11.158 32 29 16
-3.7696 1.627 18.647 49 24 34
1.5376 -0.080016 12.2 145 135 136
1.7051 -2.9988 11.041 80 69 73
12.14 11.856 30.164 131 135 156
3.0883 -1.0828 10.89 60 57 86
2.302 -6.2951 10.309 30 24 26
14.1 -2.1345 10.808 127 129 134
2.0216 -14.328 10.548 118 112 107
4.3472 2.5208 18.607 66 33 30
-1.3473 0.24067 14.205 60 66 88
13.468 -21.842 8.5154 169 145 93
1.4443 -3.2897 11.102 95 81 78
1.0281 -1.8127 11.907 47 44 61
12.32 -3.6064 7.5119 76 72 60
1.6966 -0.27855 12.025 63 56 63
1.1583 -3.2181 12.178 77 25 20
10.073 4.4312 10.551 51 50 63
2.0283 2.7459 15.713 51 29 32
2.772 -1.8206 10.804 57 46 68
2.1525 -8.3265 15.704 28 18 19
3.4334 -5.9189 8.927 87 68 70
1.3855 -6.1284 13.134 27 18 16
3.3277 -2.1667 10.985 46 36 53
6.9349 -2.4884 7.8191 113 120 136
0.96926 -4.1984 11.114 55 39 46
-5.5505 -9.0025 13.601 33 22 18
5.3938 3.3029 15.822 112 100 97
13.1 -13.79 5.7243 156 146 119
3.3975 -1.9831 11.108 40 31 40
6.255 -14.706 11.596 53 38 43
2.3477 -5.1673 9.8672 52 40 42
5.0475 3.3917 15.675 114 104 112
1.1126 -4.3223 12.098 88 47 39
3.2885 -1.9427 10.452 61 56 69
6.7365 -4.1071 7.366 90 86 109
4.1241 3.3065 16.446 93 57 71
0.77267 0.90318 13.069 76 69 85
0.80543 -3.0115 11.709 47 22 18
0.92933 -2.6333 12.003 43 22 17
1.6725 -0.29523 12.052 45 49 58
13.837 -3.0504 9.8506 74 70 76
6.0372 -14.087 8.0496 140 130 119
8.7864 2.9178 15.71 73 55 45
2.0145 -3.5459 10.662 58 43 50
1.5805 -0.57408 12.02 67 59 61
1.1096 -1.7258 11.882 59 48 64
1.1971 -2.1423 11.688 67 64 85
1.0673 -8.7286 12.104 26 17 17
1.2132 -2.4852 11.568 71 70 70
-3.6467 1.2633 18.813 65 28 42
1.0899 -1.8412 11.849 45 36 57
2.3585 -2.6216 10.763 77 58 61
6.5148 3.12 13.345 32 22 21
-4.0611 2.5332 18.374 58 26 37
-3.6255 -5.4626 17.365 67 24 31
9.87 -14.82 8.6667 124 106 85
7.3625 -2.0744 7.6907 92 97 119
13.988 -3.3213 10.483 125 128 131
9.6746 -6.0014 4.8912 62 59 68
2.9187 -4.9775 10.376 32 21 20
5.0291 -0.5076 10.544 75 70 92
2.6519 4.1278 14.519 41 34 46
11.931 -11.225 3.9154 128 120 113
3.2087 -0.057334 11.169 65 52 69
1.6303 -3.4254 10.929 41 20 25
1.2029 3.4802 13.844 58 49 70
-3.7997 -9.7257 12.023 42 30 34
2.8938 0.80567 12.603 38 27 43
11.257 4.0024 11.157 85 72 68
-1.8234 -13.672 10.229 94 88 84
1.2294 -2.593 12.339 53 25 15
-4.6658 -6.7004 15.33 42 29 27
1.165 -0.87605 12.157 102 89 103
11.934 1.5304 7.3429 73 68 74
13.629 -24.311 12.831 181 164 130
2.9829 -2.6032 10.799 29 21 19
5.3694 -2.0117 9.051 92 89 106
3.0065 0.87512 12.308 49 31 53
2.4255 4.3551 13.542 35 24 28
3.5444 4.0464 14.084 38 32 39
5.2625 3.9592 13.776 29 22 20
10.526 3.7223 12.41 90 80 71
1.3605 -5.8575 10.679 38 19 20
10.035 4.4198 10.172 56 45 44
0.9497 -1.8949 12.341 99 82 92
2.97 -1.6187 10.741 41 33 48
3.5928 -6.6807 13.609 26 20 18
11.953 -11.33 3.9594 134 128 119
14.344 -24.209 14.203 76 30 33
4.081 3.5334 15.584 110 91 95
3.6723 3.4151 16.128 130 120 118
3.3632 3.9398 14.497 61 33 26
0.15354 -0.64703 12.892 57 56 80
-2.1487 -5.4492 12.638 52 36 39
0.1025 6.2626 15.672 37 22 14
0.76426 -1.7155 12.868 51 29 17
-4.7119 -5.3429 15.43 42 22 20
-0.45327 -7.4337 13.782 25 18 18
0.25531 -3.0016 11.999 34 24 22
3.7478 -3.7411 10.573 32 22 21
12.452 3.2524 8.4527 41 35 37
3.923 -0.090762 11.809 35 24 29
4.0793 -0.058748 10.623 74 65 89
-3.9078 4.2601 18.96 81 74 78
7.3439 2.522 16.913 55 30 30
5.0614 4.208 12.942 43 39 60
3.4414 -1.3461 10.573 59 55 77
1.6946 0.57714 12.34 112 103 108
0.15003 -0.68954 12.883 80 74 100
0.42791 -2.9351 12.738 78 35 44
2.7923 -7.4388 12.548 24 18 16
0.62799 -4.1102 12.042 63 26 20
2.015 -3.9972 10.489 75 70 77
-0.065279 -6.3615 11.382 55 36 28
2.561 -3.8308 10.195 65 50 55
0.23827 -0.31301 12.949 62 59 80
4.7353 -1.5799 9.6424 46 34 58
3.1155 1.1366 11.639 68 54 77
0.62896 -2.1658 12.034 63 51 63
1.1095 -1.5831 12.491 42 23 16
21.441 6.5962 19.917 59 43 18
1.6004 3.7673 13.751 51 39 59
2.3918 -3.252 10.522 78 75 89
20.36 11.836 25.78 192 214 254
5.5265 0.0025924 9.7055 43 34 37
1.0396 -0.7181 12.308 116 103 104
-4.9268 -9.1443 13.066 40 28 32
0.75426 -6.1143 13.783 26 17 17
2.8208 -1.5816 10.861 74 70 93
16.268 -23.759 13.756 185 157 124
3.0288 -3.2444 10.121 42 32 40
5.2591 3.1802 16.879 93 95 138
1.31 -0.61854 12.152 76 78 101
2.3327 -0.31615 11.796 38 28 37
-1.0049 -6.5947 15.263 29 22 16
3.7077 3.7464 14.974 53 62 113
3.1582 -0.55913 11.015 72 71 85
6.6703 -0.88776 9.6415 38 28 36
6.1886 3.8825 13.516 48 27 24
0.25674 -2.1524 12.715 81 45 52
1.301 -0.35998 12.267 59 48 46
0.58843 -0.084269 12.828 111 100 106
2.7875 -3.7793 10.082 46 13 13
0.99323 -2.0333 12.192 44 21 15
1.9092 4.1856 14.248 74 60 57
2.2052 -3.0603 10.703 64 53 57
3.7825 0.20817 11.712 36 28 43
9.6855 3.5298 9.0586 32 23 23
0.73662 -1.0422 12.39 52 48 73
-0.69519 -5.5256 11.856 88 74 71
5.5858 -1.0791 9.2456 60 47 73
18.553 -22.711 9.1055 182 153 114
2.0778 -5.8919 9.8082 47 29 29
2.6915 -2.4673 10.621 54 38 49
1.337 -3.0768 11.261 57 46 52
8.0409 -6.0188 5.9283 71 68 95
0.70115 -1.6933 12.146 43 34 42
3.2747 3.0009 18.296 65 60 101
2.0423 -0.79998 11.631 78 61 72
1.5513 -2.886 11.191 64 54 62
5.6488 -5.3581 7.7094 65 60 64
-0.1897 1.345 13.856 69 58 72
2.4414 -7.5152 12.433 27 19 17
3.1777 0.20222 12.079 85 92 111
2.4808 -0.90533 11.319 47 35 51
3.7029 3.4518 15.993 84 72 72
3.8147 -2.0167 10.823 32 22 23
12.417 -0.0093915 8.0525 97 98 102
5.107 -2.3933 9.1145 82 76 100
-2.7244 4.4812 20.923 76 74 77
1.4084 -2.7023 11.355 58 46 57
1.6408 -0.19305 12.081 58 49 60
5.6036 4.0209 13.358 34 24 27
3.7393 -2.0281 10.674 28 19 19
1.7756 -0.77118 11.792 127 125 123
-0.085739 -2.3461 12.891 82 40 44
